0.4877840964 0.0319628100 0.1096818879
-0.0360637352 -0.0527785323 -0.1036620737
-0.1527757501 -0.0527785323 0.4273704326
0.2242252529 -0.0014727330 0.3244931808
-0.3224418603 -0.0527785323 -0.1914399477
-0.2490317948 0.0527785323 0.3647287465
-0.2859402891 -0.0527785323 -0.1133370196
0.1484875256 -0.0183412127 -0.1466736244
0.2054807734 0.0527785323 -0.1535466921
0.2558186465 -0.0527785323 -0.1808164965
-0.1542036570 -0.0088154433 0.3630437887
-0.4985431134 -0.0013846739 -0.0378308510
0.3064912886 0.0527785323 0.2768770829
-0.3250501170 0.0527785323 0.3627761465
-0.3286095075 -0.0527785323 -0.3176036913
0.2703594151 0.0527785323 -0.2113679182
0.2238621657 0.0527785323 -0.1719714642
0.4963572705 -0.0149632555 -0.0601630024
0.2441126754 -0.0230731789 0.4363364814
0.2003878476 0.0527785323 0.4123861767
0.4069296456 0.0346445761 -0.2904898043
-0.4966454403 0.0076924365 0.0577494968
-0.4853315358 0.0527785323 -0.0754571610
0.3608896076 -0.0525472100 -0.1474172174
0.0225423632 -0.0444746943 -0.0527758672
-0.3111820587 0.0527785323 -0.2674851500
0.1178883043 0.0527785323 -0.0487950663
-0.1322597762 0.0527785323 -0.4712284650
0.3027981498 0.0527785323 0.2920152288
0.0673628629 0.0527785323 0.4644560751
0.2705770652 0.0527785323 -0.3703320812
-0.3666714317 0.0267101699 0.3399131599
0.4114854985 -0.0527785323 0.0433813949
-0.3660184519 0.0502696742 0.3405919808
0.3922288970 0.0042970712 -0.0415793157
0.0860879663 0.0527785323 0.0139194056
-0.2128842215 0.0512183342 -0.4524162870
0.0229803549 -0.0194759841 -0.4994461067
0.0102832498 0.0527785323 0.2102237106
0.1262194862 -0.0527785323 -0.3919702449
-0.3930643418 -0.0458532132 0.0328369247
0.4393293767 -0.0527785323 0.1146468581
0.4622737331 -0.0527785323 -0.0243218285
0.0687142044 -0.0434579989 0.0872648308
0.1482337129 -0.0527785323 -0.0309193711
0.2932341728 0.0146313240 0.4049266664
-0.4253963686 0.0232595743 0.2627253835
-0.1418727168 0.0527785323 -0.0687676146
0.0163802648 -0.0527785323 -0.4610974824
0.0084790060 -0.0260483926 -0.0527758672
-0.1662955671 0.0527785323 -0.0925547669
-0.3857720278 -0.0503451561 0.0821362526
0.4751930456 -0.0130681627 -0.1555097743
0.3710563840 0.0527785323 0.2732716141
0.0009383913 -0.0527785323 0.3077682126
-0.3066294918 0.0197358692 -0.3949221148
-0.3127275549 -0.0527785323 0.3005925936
0.0276891736 0.0121389291 -0.0527758672
-0.2208685098 0.0527785323 -0.3785476185
0.1066715284 0.0527785323 -0.0408527038
0.4281696996 -0.0500513350 -0.2581711393
0.0881501705 0.0295903249 0.0675938167
-0.0349729067 0.0527785323 0.4609991144
0.0403880813 -0.0145910169 -0.4983277493
-0.0527847228 -0.0323075970 -0.0507771483
0.3986961062 0.0527785323 0.0730889703
-0.1310041896 -0.0234110704 0.3720257818
-0.0695933577 -0.0518645450 0.3882323530
0.2450091128 0.0527785323 -0.1084379051
0.4586984967 -0.0527785323 0.0546640447
-0.2416878025 0.0283921783 -0.0785888764
0.3338922552 0.0527785323 -0.2191579010
0.0477539034 0.0342272632 -0.4977000551
-0.3735971789 0.0317209857 -0.1265187081
-0.1088949893 -0.0527785323 -0.4242921586
-0.3751131877 -0.0527785323 -0.3273136593
-0.1435704957 -0.0181589153 -0.0219408295
-0.0709844137 -0.0527785323 0.4728481342
-0.0612279793 -0.0508091950 0.3896201898
0.3750057293 -0.0527785323 -0.1421024134
-0.1146228111 -0.0527785323 -0.4825450085
-0.2686622816 0.0527785323 -0.2888258162
0.3746593346 -0.0527785323 -0.2033422325
0.0527723418 0.0062706366 0.3421067533
0.2287709219 0.0527785323 -0.1509909424
0.1566348944 0.0527785323 -0.4613746503
-0.4845273788 -0.0300483767 -0.1234055384
0.0401269232 0.0527785323 0.0668353201
-0.2167264632 -0.0527785323 0.4365776562
0.0040062353 -0.0526141592 0.4999602917
0.2731951192 -0.0244765831 0.4187433621
-0.3976340359 0.0258356121 0.3030907024
0.0453333556 0.0527785323 0.1508845476
-0.4036533451 -0.0527785323 0.2236313009
0.1382192199 -0.0413150056 -0.4804967424
-0.2294824204 -0.0527785323 -0.4084959697
-0.1487158058 -0.0527785323 -0.0446983927
-0.3994998289 -0.0527785323 0.1295672025
-0.3876271037 0.0171484539 0.0728511379
0.0527517064 0.0527785323 0.0548205433
0.1062299094 0.0309983472 -0.3798526182
0.3998617168 0.0357383706 0.3001253180
0.3926713251 0.0367541906 0.3095243892
-0.3192391061 0.0492682576 -0.1233631481
-0.2495509395 -0.0527785323 -0.0917109724
-0.2218637384 -0.0527785323 -0.1090556823
0.1280149383 -0.0527785323 -0.4307526445
0.2697191184 0.0527785323 0.3672970312
-0.1035171348 0.0527785323 0.4182804826
0.1046325859 0.0527785323 0.0086775893
-0.4259770638 0.0527785323 0.0903365427
-0.3576217290 0.0527785323 -0.3061557456
0.0317911584 0.0527785323 0.0896404660
0.1947759419 -0.0465162031 -0.3429671955
0.1419139634 0.0527785323 -0.1424945419
-0.2656745473 -0.0047655703 -0.2915327007
-0.0283231170 -0.0527785323 0.3130293894
-0.3084187884 -0.0277157218 -0.2390028331
0.1706614413 -0.0527785323 -0.4077007470
0.1160389761 -0.0152343732 -0.4863358541
-0.0262632356 0.0527785323 -0.0829825688
-0.0772424676 -0.0502600942 -0.4939935688
-0.2231933978 0.0003223871 0.4473920152
0.1416443855 -0.0527785323 0.4428095506
-0.0147777170 -0.0527785323 0.1504557027
0.3529168925 0.0527785323 -0.3044498105
0.4534166223 -0.0368798820 -0.2107259840
-0.1184904421 -0.0144904059 -0.0074608491
0.3239176128 0.0527785323 -0.2337276033
-0.0527847228 -0.0405550793 0.1664899780
-0.0555728736 0.0527785323 0.4044328370
-0.4808220926 0.0053161012 -0.1371312814
-0.2526613735 0.0527785323 -0.1619411945
0.0284845475 -0.0527785323 0.1389202241
-0.4839996526 0.0527785323 -0.0016033006
-0.3286972647 -0.0480901160 0.2180279526
-0.1110308708 -0.0416401275 -0.0000407150
-0.3055073938 0.0527785323 -0.3425127318
-0.0276402995 -0.0170123196 -0.0527758672
-0.2255686993 0.0116923131 -0.4462280138
0.3062033512 0.0060293068 -0.2486207439
0.3921923587 -0.0527785323 0.2590201473
0.3219381026 -0.0502699179 -0.3825336564
-0.0469160070 0.0527785323 -0.4372748262
-0.2349142685 0.0527785323 -0.3831483078
-0.4374259539 0.0428386399 -0.2421566309
0.0527723418 0.0143201032 -0.0447161396
0.4997371804 0.0009799745 -0.0151098822
0.2839686499 0.0184065072 0.2737483479
0.2915109541 -0.0527785323 -0.1534456815
0.4712246605 -0.0527785323 -0.0315023184
0.1539317745 -0.0527785323 -0.4086934726
-0.4125224164 -0.0231571237 -0.2825237649
0.0701296100 0.0452699144 0.0861151869
-0.0607479950 0.0494776031 0.0928850694
0.3894051019 -0.0253026971 0.3135847702
0.3277445264 -0.0341932595 -0.3775787987
-0.4616436221 -0.0473112159 0.1920382643
-0.0272284886 -0.0133902349 0.0527811975
-0.2724191075 -0.0527785323 -0.3492427884
0.4240523317 0.0399561695 0.2648523751
0.3584097423 0.0170469789 -0.1459854659
-0.1179685010 0.0527785323 -0.4673609835
-0.3841309497 0.0527785323 0.1192735607
-0.3711191201 -0.0353700582 -0.1335280595
0.0527723418 -0.0241083585 0.1406045268
-0.1140769104 -0.0093068783 -0.4868129344
-0.3776733811 -0.0527785323 -0.1940690653
0.1517561555 -0.0527785323 -0.0710776066
-0.4171515240 0.0527785323 -0.1826219863
0.0693441013 0.0467700813 -0.1009801360
-0.1555057121 -0.0127125340 -0.1507184293
0.4373277900 -0.0326450096 -0.2423146992
-0.2133706175 0.0164268783 -0.0622399393
0.1402348106 0.0007445787 -0.0200221083
-0.2407997742 -0.0107430388 -0.4381867601
0.2768410762 0.0301014926 0.2809519370
0.0984369364 0.0428224830 -0.4901997434
-0.4971463897 -0.0357379692 0.0531551179
-0.0498612724 -0.0527785323 0.3774078044
0.0417455816 0.0527785323 0.0997652497
0.1937401257 0.0451032758 0.4609180211
-0.0405056683 0.0527785323 0.1950922872
0.0525859824 -0.0527785323 0.1416229044
0.4631728351 -0.0226932224 0.1882563482
-0.1023178716 0.0527785323 -0.4844492307
0.2421092723 -0.0527785323 -0.3360225755
-0.1258024753 -0.0527785323 -0.0313246121
0.0696404952 -0.0158667871 -0.1011512775
-0.3871311355 0.0299313657 -0.0755647936
-0.3938043564 -0.0381429715 -0.0220178695
-0.2418955569 0.0203848324 0.4375692309
0.0790431384 -0.0527785323 0.3868265419
-0.1862730175 -0.0312783132 -0.3476716748
0.0527723418 -0.0385155748 0.1968785749
0.4131709159 0.0527785323 0.0889842492
-0.1115030490 -0.0033710390 -0.4873880915
0.2948108427 0.0527785323 -0.3143451715
0.3308141253 0.0527785323 -0.1461454340
0.4388133226 0.0047985257 -0.2396275805
-0.3640929366 0.0255827485 0.3426429990
-0.1670440986 0.0027139589 -0.3572916730
-0.1088866224 -0.0292183074 0.0219681485
-0.4025203524 -0.0527785323 0.1677720454
0.4134970733 -0.0527785323 -0.1736614879
0.0632490015 -0.0527785323 0.0816613091
-0.2541441023 0.0362185332 -0.0857805209
-0.2854650449 0.0527785323 0.3157720918
-0.2891786389 0.0527785323 -0.3562782945
0.4800601090 0.0118805207 -0.1397560464
-0.2085272925 -0.0023250361 -0.3348138993
-0.4041590376 -0.0196021297 -0.2943499685
0.4823200013 -0.0527785323 -0.0578858231
-0.1303930393 -0.0527785323 -0.4804509157
-0.3565066478 0.0527785323 -0.2951170428
0.4375285526 -0.0527785323 0.0205857754
0.4081018102 0.0527785323 -0.1372961014
0.1524751953 0.0527785323 -0.1406045705
0.0491220110 -0.0527785323 0.1198744668
-0.0645240336 0.0321227885 -0.4957830173
0.4136316205 0.0527785323 0.2418414114
0.3109693373 -0.0527785323 -0.2888159040
0.4272723309 -0.0527785323 0.0681121154
0.2640411633 0.0527785323 -0.3444583677
-0.2217900646 0.0128106711 -0.4480842212
-0.1336753942 -0.0527785323 -0.3935685418
-0.1925756315 -0.0527785323 -0.4380098304
0.0899537063 0.0422793693 0.4918211138
0.3289532083 0.0527785323 -0.1483760350
-0.3786141201 0.0257503217 0.1105414396
-0.3358604819 -0.0088267363 0.3703822298
0.0892650599 0.0527785323 0.3882838409
-0.1554412665 0.0457130073 -0.4752110773
-0.4667303881 0.0150129179 0.1793039747
-0.2527207072 -0.0527785323 -0.4276309666
-0.3467399436 0.0527785323 0.2222659961
0.3467906176 -0.0527785323 -0.2789927562
-0.3341580178 -0.0433763348 -0.3719358402
0.1578083900 -0.0527785323 -0.1435167574
0.3697669466 0.0127334871 -0.1372159941
0.1892297038 -0.0242330227 -0.0483093342
0.0036224386 0.0074617818 0.0527811975
0.4738943945 -0.0527785323 -0.1222665574
-0.0527847228 -0.0208549950 0.1314078776
-0.3622014383 -0.0527785323 0.2645315339
-0.4345060844 -0.0080505185 -0.2473759108
0.4088121266 0.0527785323 0.1172080785
0.1757225190 -0.0363528672 -0.1623977543
0.2121745814 0.0527785323 -0.3844939906
0.3396303964 -0.0527785323 0.2609574246
-0.4848564736 0.0305555990 -0.1220755433
-0.3863059411 0.0527785323 0.2135321087
0.0622426351 0.0049470354 0.0918016956
0.3943264562 -0.0425011435 0.0090390028
0.4886211883 -0.0461547580 0.1059395550
-0.0729476733 -0.0447682050 0.4946456122
0.0872688914 -0.0527785323 0.4430753697
0.2318889778 -0.0527785323 0.4380626303
-0.3299673368 -0.0112920174 -0.3756372101
-0.1027025829 0.0527785323 -0.4327936788
0.4964988233 -0.0084661825 0.0589958054
0.3977688968 0.0527785323 0.1287571822
-0.3324079220 0.0142126332 0.2122905675
0.4990730205 -0.0439315311 -0.0300502757
-0.4675224069 -0.0474926156 0.1772513529
0.4999981178 0.0389868796 -0.0002781050
-0.2325737144 -0.0527785323 -0.4331247348
0.0527723418 -0.0320832244 -0.0381380170
-0.3940487657 0.0365683995 0.0168469014
-0.3379289401 -0.0527785323 -0.3424861853
0.2352558709 -0.0527785323 -0.1278547384
-0.2343119560 -0.0527785323 -0.0959635695
0.0404001445 0.0527785323 -0.4966453128
-0.2824652148 -0.0527785323 -0.1117097233
-0.2100500155 -0.0171626036 -0.3338323870
-0.2583354716 0.0087443775 -0.4280635873
0.3868486854 0.0184746267 -0.0769372838
-0.0005577506 0.0208166467 0.4999814453
-0.4408237795 0.0527785323 0.1985299529
0.0527723418 0.0312136306 0.1671827972
-0.3290639510 -0.0494180680 -0.3764487889
-0.4800026239 0.0527785323 -0.0412929569
0.2603682659 -0.0509945973 -0.2962338203
-0.1445022706 -0.0527785323 -0.4289568863
-0.1614531742 0.0017594978 0.4731884683
-0.2772373361 -0.0527785323 -0.2033586186
-0.0759205117 0.0228509528 0.0810326694
0.4951518908 -0.0197499611 0.0693824939
0.4438519656 -0.0527785323 -0.1620990772
0.1079741602 0.0265416044 0.0256097249
-0.3828503851 0.0527785323 0.3041171779
0.1567223674 0.0114687161 0.4747809459
-0.3408707420 0.0527785323 -0.2399290498
0.0216076948 0.0527785323 0.2544474998
-0.1155761116 0.0031806190 0.3771001953
0.1037282716 -0.0527785323 0.4341896123
-0.4909543518 0.0411591290 -0.0946003746
-0.2466866984 -0.0244999125 -0.3077333539
-0.3623696494 -0.0156123569 -0.3445063600
0.1930183244 -0.0527785323 0.4205105639
0.2324573159 0.0469104407 0.4426527039
0.3007687390 0.0122948971 -0.1127064170
-0.3200279891 0.0527785323 -0.3111960051
-0.0718908574 -0.0527785323 -0.4116883956
0.0536201854 0.0527785323 -0.4212307799
-0.1584091935 -0.0527785323 -0.4415861343
-0.3395258964 0.0217985813 0.2007556186
-0.0343982818 0.0527785323 0.4873460998
-0.3804653435 0.0383422592 -0.1040919381
0.4794308289 0.0501557339 0.1418841745
-0.4971924784 0.0452917493 -0.0527805843
-0.0537915466 -0.0167818530 -0.4971011061
0.3273378698 0.0527785323 -0.2340936504
0.4528701054 0.0463864351 -0.2118574218
0.2221354992 0.0527785323 -0.4236434205
-0.2833909999 0.0527785323 0.3057629968
-0.0527847228 -0.0176882667 0.2378451115
0.4616530338 0.0500778999 0.1920060751
-0.2014541482 0.0526752611 -0.4576001876
0.4106580318 -0.0445550467 0.2852067964
0.4064489446 -0.0527785323 0.1732856795
-0.0649406785 -0.0018841306 0.4957369828
-0.4196653202 0.0527785323 -0.1625690107
0.4791933315 0.0256602829 0.1426880175
-0.2394160245 -0.0527785323 -0.0999721825
0.3365969170 0.0323130359 0.2056091836
0.4723359698 -0.0527785323 -0.0812448853
-0.0466960058 -0.0527785323 -0.4569183038
0.4231812127 -0.0275170706 0.2662791189
0.2860260606 -0.0527785323 0.3995149060
-0.1622947322 -0.0258539126 0.3595060236
0.3424229938 0.0527785323 -0.1625630520
-0.3943979391 0.0505809540 -0.0030612850
0.0527723418 0.0059622241 0.3832781672
-0.0907084243 -0.0527785323 -0.0923782136
0.4615519242 0.0527785323 0.0072372181
-0.0527847228 -0.0024838243 0.3790815813
-0.2993830493 -0.0527785323 -0.1541507378
-0.1104648381 0.0083134790 0.0117760557
0.1502330858 0.0527785323 0.4310412215
0.4999859637 -0.0425520916 0.0024363044
0.1585398720 -0.0346589194 -0.3611392083
0.0114324779 -0.0527785323 0.2733070214
0.4126070050 -0.0450939140 -0.2823833787
0.3524477722 -0.0527785323 -0.1831497814
-0.4957764184 0.0228548499 -0.0649433851
0.2513668482 0.0359015710 -0.0841842284
-0.2943129575 -0.0527785323 0.3042486839
-0.3514065617 0.0527785323 0.2286252329
-0.3632952235 0.0057264504 0.1535956631
0.3565587100 -0.0228622326 0.1686218197
0.0392166612 -0.0527785323 0.3250090672
-0.2679451957 0.0063599886 -0.2894366652
-0.3361777363 0.0527785323 0.2144518258
0.2788077946 -0.0339550682 -0.2219140623
0.3746764434 -0.0033195668 0.3310519602
0.4868955970 -0.0527785323 0.1067050465
0.0058469700 0.0527785323 0.1458580501
-0.4568120837 -0.0527785323 0.1795431691
-0.4279338815 0.0527785323 0.0549616196
0.0527723418 0.0245594928 -0.0070939272
-0.0326989866 0.0527785323 0.1455641111
-0.3468948122 0.0527785323 0.2832000818
0.0950891597 0.0527785323 -0.4602908212
0.4106762249 0.0527785323 0.0337676716
-0.4923472786 -0.0001472512 0.0869588384
-0.1451195413 -0.0157730987 -0.3667302736
-0.3902012100 0.0276131912 -0.0575557140
0.1554237663 0.0278360743 -0.3624998542
0.2027703583 -0.0323236821 0.4570245778
-0.3646165359 -0.0423355053 -0.3421301997
-0.1627784416 -0.0527785323 -0.3844330803
0.4109876290 -0.0527785323 0.0891082146
-0.3338230460 0.0474364560 0.3722243668
0.0499357375 -0.0527785323 -0.4467670564
-0.4997273943 -0.0209555744 0.0161089332
0.3153951170 0.0163568656 0.3879480253
0.2715143715 0.0509460754 0.2860530701
-0.2231888984 -0.0250754332 -0.0679085336
0.0852893980 0.0527785323 -0.4054050768
-0.4197678516 -0.0417770757 0.2716530980
-0.4771723393 0.0005910875 -0.1492365719
0.0338507039 -0.0527785323 0.2904664394
-0.0288263732 0.0469611325 -0.0527758672
-0.1161892073 -0.0527785323 0.4368465433
-0.1422125792 0.0100194079 -0.0211568262
0.4445209036 0.0527785323 0.0940083426
-0.4707635554 0.0527785323 -0.1081810110
-0.1962837098 -0.0497044058 -0.0523748167
0.4526096069 -0.0527785323 0.1942843738
0.2625551261 -0.0242464315 0.2943029457
-0.2156813343 0.0527785323 -0.1202183866
-0.3196563000 -0.0397324459 0.2310676534
0.4925613608 -0.0114386415 -0.0858247422
0.0527723418 0.0007143233 0.1084240247
-0.0607945563 -0.0527785323 -0.4947277728
0.0374005744 0.0527785323 0.1001076603
-0.2715658347 -0.0527785323 -0.4019080592
-0.2310167703 -0.0527785323 0.4384675931
0.4168009431 0.0527785323 -0.1766706903
-0.0360856630 0.0169953183 -0.1050303112
0.4990035958 0.0283200196 -0.0312545428
-0.3794658028 0.0128261947 0.1076369053
-0.0077937779 0.0022863104 -0.4999062281
-0.4956931721 0.0527785323 0.0168407826
0.0742077264 -0.0214564924 0.3873555438
-0.4179732397 0.0527785323 0.1502191630
0.4894261803 -0.0527785323 0.0895037547
-0.4312924367 0.0527785323 0.1343577890
-0.4315133139 0.0527785323 -0.1474688963
0.2246794422 0.0284804086 -0.4466447245
0.4575329136 0.0242682628 -0.2015677036
0.0171577335 -0.0527785323 0.3684273026
-0.3195160132 -0.0144486412 -0.3845515925
-0.0832758325 -0.0527785323 0.0046085543
0.3872755482 0.0527785323 -0.3103680336
0.0527723418 0.0104711779 0.2766747393
0.1946842712 0.0527785323 -0.4130119377
0.3801311809 -0.0419430850 0.1052585142
-0.3904933241 -0.0435784685 0.0555224705
-0.0527847228 0.0434363806 0.2942686082
0.1411397815 0.0371688197 0.4796712715
0.0604991731 0.0527785323 -0.4510276822
-0.1946427243 0.0527785323 -0.0706634854
-0.0013994924 0.0527785323 0.2445052177
0.4360895918 0.0527785323 0.0131314188
0.0980974522 0.0527785323 -0.3879966517
0.4226256858 -0.0527785323 -0.1764350878
0.4392841922 0.0527785323 0.1337547613
0.1384470359 -0.0175427317 0.4804424297
0.2546919240 0.0222351753 -0.2079907586
-0.3103735780 -0.0527785323 -0.3306268464
0.0015119293 0.0527785323 0.1741241622
-0.0386736307 0.0527785323 -0.0726796750
-0.0109754121 -0.0527785323 0.3345137262
-0.2936010281 -0.0527785323 -0.3785712582
-0.0527847228 0.0286234942 0.2188583337
0.2293682079 0.0527785323 0.3447320516
-0.3942619019 -0.0092650159 -0.0109517146
0.4741190840 0.0497899932 -0.1586661003
-0.2656296272 -0.0197178163 -0.4235930174
0.2287127682 0.0527785323 -0.0847745953
-0.1248884779 -0.0527785323 0.4092728355
-0.4510773657 -0.0527785323 -0.1975992416
-0.1596097654 -0.0317374248 0.3606980453
-0.3911258016 -0.0408004753 -0.0508534294
0.1448833387 0.0507427901 -0.1445927373
-0.0314573039 -0.0346921436 -0.1064675466
0.1726673484 -0.0351307629 -0.1606338494
-0.4732426884 0.0182659851 -0.1613185235
-0.0527847228 -0.0156875007 0.1455923405
-0.4791772629 -0.0527785323 0.0381110712
0.3056386913 0.0413808650 -0.2374048982
-0.0527847228 -0.0269070004 0.2737011317
0.0533040935 -0.0281014604 -0.0973266691
0.2262624043 -0.0458398696 0.3230761487
-0.2995157341 -0.0276686717 -0.2338626587
-0.0278586511 0.0523861646 -0.4991797154
0.4893503114 -0.0527785323 -0.0151096694
0.0739648695 0.0527785323 0.0422675535
0.2634303841 -0.0527785323 0.3675182853
-0.0301364567 -0.0527785323 0.1598301516
-0.4885614418 0.0203696370 -0.1063213235
-0.2237459506 -0.0209358786 0.4471421097
0.0522269636 -0.0168100655 0.4972577852
-0.1345569375 -0.0375219042 -0.4815187082
0.0279773820 0.0527785323 0.1941889303
-0.4014151873 -0.0527785323 -0.2163197993
0.3548506472 0.0527785323 0.2237903213
0.4997536519 0.0299644244 0.0147602445
0.4401825344 -0.0527785323 -0.1587556443
0.0016264679 0.0527785323 -0.0999413369
0.3653101144 -0.0444499874 -0.3413617112
-0.3280222441 -0.0129400277 0.2190187144
-0.1490509922 0.0527785323 -0.3823444673
0.3846069589 -0.0527785323 0.2749086766
0.2784660377 -0.0259082402 -0.4152546248
0.0213698902 -0.0527785323 0.1574180520
0.2255510258 0.0527785323 0.3708840751
0.4829586830 -0.0450810608 -0.1293907540
0.4762063630 0.0253576928 -0.1522858773
0.4972721962 -0.0051512832 0.0515677748
-0.0527847228 -0.0327101591 0.3096025991
0.1051245118 -0.0060443897 -0.3801496973
0.2489256812 0.0527297352 -0.0827748200
-0.1714048001 0.0527785323 0.4372535483
0.3260783926 -0.0527785323 -0.3516012858
0.0187381879 0.0527785323 -0.4799583594
-0.0659113827 0.0527785323 -0.4071293351
0.4325090823 -0.0527785323 -0.1772061544
-0.0471615024 0.0527785323 -0.4746482633
0.2984553120 0.0287189854 -0.2578136458
-0.2467502536 -0.0527785323 -0.1105943997
0.3384759436 0.0527785323 0.2669116644
0.1722599420 0.0164768152 -0.4693811653
0.4305898533 -0.0207504962 -0.2541505644
-0.0667260514 -0.0527785323 -0.0377310476
0.1305533861 -0.0373291591 -0.1363193372
0.4362925524 -0.0171595368 0.2441963583
0.0362311611 -0.0527785323 0.3856093741
-0.4338265402 -0.0467669483 -0.2485573435
0.4438703075 -0.0527785323 -0.2218078397
0.4447326811 -0.0057811468 -0.2284674811
0.0411077337 0.0161850498 -0.4982635883
0.2191361693 -0.0527785323 0.4319139884
-0.2759176548 0.0527785323 -0.3372562857
0.2447464823 0.0459336509 -0.4359773391
-0.4087828519 -0.0527785323 0.2641746697
0.3754188310 -0.0527785323 0.3062246485
0.4802389987 -0.0110020597 -0.1391009997
-0.4459762311 0.0527785323 -0.1651240804
0.1286127094 -0.0527785323 -0.4224249055
0.3757833106 -0.0527785323 0.2379147544
0.3794782560 0.0527785323 0.1851437435
0.1818253255 0.0527785323 0.4479036951
-0.0969904672 -0.0356906191 0.0541777377
-0.2350834931 -0.0105492880 -0.0747758842
-0.2755333102 -0.0527785323 -0.1249756340
0.0687220507 -0.0435409417 -0.3883974912
-0.1653057982 0.0527785323 -0.1162416224
-0.4769371946 0.0527785323 0.0942690914
0.1667075219 -0.0527785323 -0.1528619171
0.3008375361 -0.0527785323 -0.3030212155
-0.3024275310 0.0527785323 -0.1296903211
0.1593283561 0.0290937630 0.3608201485
-0.3839873665 -0.0527785323 0.1955716711
0.3646460546 -0.0527785323 0.1824835884
-0.3670817110 -0.0527785323 0.3120599260
0.2885463829 0.0300368782 -0.2275366392
-0.3875063620 -0.0398357577 -0.0735457004
0.4038379639 -0.0527785323 0.2803683439
-0.0527847228 -0.0161261114 0.1103154581
0.4485716232 0.0527785323 -0.0322290351
0.4004702113 -0.0527785323 -0.0734911944
-0.0125708408 -0.0388773292 0.4998163356
-0.3663865128 0.0173209425 -0.1460146356
0.0360144174 0.0527785323 0.1336555610
-0.3742456907 -0.0527785323 -0.1830098386
0.4007440603 0.0199305354 -0.2989664811
-0.2641457194 -0.0470218719 -0.4245280810
-0.3383338734 -0.0527785323 -0.3510748710
0.4241189063 -0.0527785323 0.2392404031
0.4691416163 0.0298130159 -0.1728629573
-0.1898779348 -0.0527785323 -0.3539597983
0.2770696111 -0.0527785323 -0.3342330723
-0.3866920663 0.0527785323 -0.2310682244
-0.3008400736 -0.0480236166 -0.3993461470
0.4684282899 -0.0158205017 -0.1747576256
0.4500825205 -0.0238185574 -0.2177399465
-0.2552504950 -0.0211440255 -0.0864192969
0.3538273421 -0.0469735721 0.3532565405
0.3734399537 -0.0041266376 -0.3324677048
0.0595147619 0.0452059303 -0.3899127976
0.0120416537 0.0527785323 0.1299412935
0.2256567679 0.0498805120 -0.0693405043
0.4524326858 -0.0527785323 -0.1615185041
0.0136234732 -0.0527785323 0.2649994375
-0.0762528164 0.0527785323 0.3993045331
0.3381741006 -0.0527785323 -0.2805339607
-0.4789574230 -0.0381670330 0.1434980841
-0.0126365068 0.0408480523 -0.4998129547
0.1471036910 -0.0527785323 0.4429663275
0.3012046993 0.0002691276 0.3990515720
0.0284241082 -0.0327987652 -0.0527758672
0.1903023185 -0.0527785323 0.4472224687
-0.4966078303 0.0412374194 0.0578794466
0.4616865097 -0.0527785323 0.1718626070
-0.3242411443 0.0255366803 -0.3806183648
0.0527723418 -0.0234014093 0.1395088828
-0.0075151926 0.0126018343 0.4999405804
-0.0775330060 -0.0210627627 0.3867293492
-0.2653361244 -0.0321622306 -0.2141290412
0.3329116879 -0.0293572320 0.3730129144
-0.1128269243 0.0527785323 0.3801931249
-0.1582569800 0.0527785323 0.4668272464
-0.1507980788 0.0219644186 -0.4767190609
-0.2424271910 0.0527785323 -0.4145372576
0.0011368788 0.0422263197 -0.1110662279
-0.0657513671 -0.0527785323 0.0854631455
0.3074156895 0.0527785323 -0.1917021156
0.0527723418 0.0037542274 0.1718403964
0.2932461232 -0.0527785323 -0.3513159258
-0.3730973765 -0.0230802305 -0.3328686958
0.4539106292 -0.0527785323 -0.0115255514
-0.1086549861 0.0507882073 0.0232028069
-0.3826388484 -0.0096750500 0.3218151875
-0.0527847228 -0.0045627286 0.3184703603
-0.0221514058 -0.0527785323 -0.4870541661
-0.2597794214 0.0527785323 -0.3909778809
0.3744199624 0.0521746828 0.1239662276
-0.3671947266 0.0527785323 -0.2320014100
0.2724372880 -0.0147740768 -0.2851821714
-0.1462051307 -0.0079534668 0.4781316024
-0.1016587146 -0.0478746564 -0.4895404329
0.1183892027 0.0062483128 -0.1292963458
-0.0143655437 -0.0527785323 0.2866016979
-0.3056979338 -0.0527785323 0.3323296450
-0.1587260391 0.0448173481 -0.1525776804
-0.0171209124 0.0100931628 -0.4996818811
-0.3053388960 -0.0067800493 0.3959198936
0.2166106859 0.0527785323 -0.3762195999
0.3565918200 -0.0147920316 0.3504479577
0.1933396411 0.0527785323 -0.3818458451
0.1990097015 -0.0527785323 -0.3511767525
-0.1161747496 -0.0030020098 0.4862860472
-0.1723100252 -0.0527785323 0.3916397964
0.4539394427 -0.0527785323 -0.1690645611
0.4039308928 0.0527785323 0.1357719747
-0.2444070170 0.0527785323 -0.1412706735
-0.4620530677 -0.0527785323 -0.0218802265
0.0985745906 -0.0019722266 -0.4901701619
0.4165315706 -0.0527785323 0.0594600621
-0.2407454513 0.0527785323 0.3240220657
-0.0291093240 -0.0188488695 0.0527811975
-0.4859673565 0.0527785323 0.0623092378
-0.4809400145 0.0391678455 -0.1366526607
-0.1365125590 -0.0527785323 0.4045599699
0.2845120594 -0.0527785323 -0.3182215432
0.2413078519 0.0438789862 -0.2002634633
-0.1192740831 -0.0527785323 -0.3760995492
0.2060359076 -0.0527785323 0.3859649423
0.2416778726 0.0270871982 -0.0785903023
-0.1398257804 0.0527785323 -0.3715599983
-0.4825852203 0.0527785323 0.0626639899
-0.4397801367 0.0298922664 0.2379008516
-0.1263099037 -0.0527785323 0.4782272637
0.3020547160 -0.0482905853 -0.1134488852
0.0527723418 -0.0526384487 0.2400113203
0.0680243946 -0.0527785323 -0.0990438899
0.1659466529 0.0527785323 0.3759381985
-0.4953768672 -0.0527785323 -0.0606039233
0.0511381406 0.0389797815 -0.4973485559
0.3394669795 0.0527785323 -0.2111302924
0.3834466501 -0.0527785323 0.1562515117
0.0888179165 -0.0527785323 0.0455562032
0.2239081367 -0.0222148366 -0.4470314147
0.2182665430 -0.0527785323 0.3592733591
-0.1639342598 -0.0049326978 0.4723585923
-0.1435859084 -0.0475438978 -0.3673631763
0.0808729432 -0.0527785323 -0.1029157060
0.3639741966 0.0144145800 0.1518755674
0.3658757159 0.0527785323 0.2841459143
-0.1815302245 -0.0527785323 -0.4523662510
-0.2457313065 -0.0527785323 -0.1280330266
0.2894872773 -0.0527785323 -0.3374760635
0.2680613744 0.0527785323 0.3112535623
-0.4988105526 -0.0001371177 0.0344492666
-0.2044834965 0.0128478953 0.4562483944
0.4632649455 0.0364765588 0.1880309606
0.4925097918 -0.0226544816 0.0861399528
-0.2945928814 -0.0527785323 0.3197808452
-0.0071332799 0.0143833347 -0.1107806848
-0.1860263266 -0.0527785323 0.4067452972
-0.2139011781 -0.0527785323 -0.1693218085
0.1504775192 -0.0181649239 -0.3645897688
-0.2148963985 -0.0527785323 -0.3905231774
-0.4382204910 0.0527785323 0.1571955501
0.0527141773 0.0527785323 -0.4358457831
-0.0674755858 -0.0527785323 0.3929923157
0.2252408865 -0.0527785323 -0.3496512614
-0.3508757184 0.0293755493 0.3561907903
-0.0327313265 -0.0031920864 0.4989030872
-0.0527847228 0.0057884579 0.1600095330
-0.3700153998 0.0527785323 -0.1618289252
0.1588083076 -0.0527785323 0.4385650606
-0.0982448422 -0.0527785323 -0.4217267984
0.3123253617 -0.0386857508 0.2408411231
-0.4734736200 0.0527785323 -0.1146173828
0.2074445390 0.0313587593 -0.1807124817
0.3026742441 -0.0295293078 0.3979741694
0.4084191726 -0.0527785323 0.0913365624
-0.0426792816 0.0436021045 0.4981680425
0.2776623261 0.0244886392 0.2801539557
0.3196176093 -0.0527785323 0.3531106622
-0.2844174777 -0.0527785323 0.3868399177
-0.0527847228 -0.0463052134 0.1595791251
0.2384169042 0.0527785323 -0.4384821673
0.2031738475 -0.0143539643 0.4568565028
0.0341109302 0.0527785323 0.2940898904
0.0527723418 -0.0369651469 -0.0518237539
-0.0458189002 0.0527785323 0.4809042715
0.3655634459 0.0527785323 0.1542944819
0.3140877602 -0.0527785323 -0.2115027540
0.4943658937 -0.0513736647 0.0746166101
0.0723533411 -0.0124706810 -0.1027175427
0.0190399200 0.0527785323 -0.4029791027
0.1609843150 0.0527785323 0.4041155366
0.0527723418 0.0426893805 0.1919850813
0.0624296272 -0.0527785323 0.4481297226
-0.2825313575 0.0041924240 0.4125042302
-0.1058368084 -0.0527785323 -0.0457526381
0.2425653778 0.0322125266 -0.4371947296
-0.0142957118 -0.0284037260 -0.1101634495
-0.1699540811 0.0114600321 -0.4701834703
0.1225036720 -0.0509940709 0.3749357856
-0.2585114479 0.0527785323 0.3461405194
0.3558977303 -0.0527785323 -0.3129825362
-0.2885088495 0.0527785323 0.3142395246
-0.4309267458 -0.0026837955 -0.2535257916
0.3974018177 0.0527785323 0.1734540927
0.2906257146 0.0527785323 -0.2868654295
0.0102766741 -0.0527785323 0.2936421690
-0.1343323762 -0.0140427500 -0.4815995320
0.4518233750 0.0527785323 0.0179650947
0.0658495841 -0.0096390242 -0.3888728267
0.0527723418 0.0131937943 0.3430024159
-0.0019538796 -0.0527785323 0.3029775033
0.4437704259 -0.0527785323 -0.0963937097
0.2362947449 0.0527785323 -0.1630134445
-0.1634404102 0.0527785323 -0.4369623863
-0.1233434611 -0.0396213466 0.3746242057
-0.4692082076 -0.0527785323 0.0787169151
0.0507143578 0.0324865344 -0.4974146940
0.2036220101 -0.0303828007 -0.3377843073
-0.1261276876 0.0302303025 -0.3736959252
-0.1852072089 0.0527785323 -0.4031823840
0.0136082539 -0.0336656042 0.0527811975
0.3911851393 -0.0527785323 0.2332291354
0.4658020205 0.0527785323 0.0800023980
0.3680044724 0.0527785323 0.1857396371
-0.0689779555 0.0527785323 0.0443304954
-0.0425131706 0.0386308043 0.0527811975
0.1050919870 0.0061300610 -0.4888181653
-0.0527847228 0.0395129878 0.2804352729
-0.0333909219 0.0527785323 0.2266113896
0.4897041947 0.0270896695 -0.1008565083
-0.1605742416 -0.0292015434 -0.1536447502
0.4773233260 0.0210468696 -0.1487771495
-0.1009972083 -0.0376546608 0.3812987376
-0.0455679360 0.0527785323 0.4672097482
-0.1194517631 -0.0280690369 0.4855269047
-0.0802502995 -0.0034329468 -0.3861707736
-0.1227799745 -0.0047098051 -0.4846556960
0.0232061417 0.0527785323 0.2085507190
-0.1800363441 -0.0527785323 -0.0743365139
-0.0527847228 -0.0027597088 0.1210787750
0.0204969394 -0.0527785323 0.2677730281
0.0527723418 -0.0142816813 0.0438397090
0.2220979820 -0.0527785323 -0.1602846725
-0.0231096537 -0.0480990258 0.0527811975
-0.0526152531 -0.0527785323 0.4884744765
0.3136104087 -0.0133705692 -0.1201205597
0.4670761370 0.0527785323 0.0284504804
-0.2444203288 -0.0289683370 -0.0801665047
-0.1313497127 -0.0350394874 -0.0148851579
0.1065041031 -0.0527785323 -0.4340685743
-0.3710222161 -0.0527785323 0.1376482232
-0.0530025868 0.0527785323 -0.0409903083
-0.3768147630 0.0527785323 -0.3277627934
-0.1324262685 -0.0527785323 -0.3914792904
0.1592406145 0.0527785323 -0.0806619564
-0.4769599550 -0.0516757706 0.1499696430
0.3960737803 -0.0295330372 0.3051457147
-0.2604239579 -0.0131467366 -0.0894062047
0.4206192476 -0.0527785323 -0.1390651828
0.1041794851 0.0404355100 0.4889895652
0.3529524114 0.0011623317 -0.3541395972
-0.0880086863 0.0527785323 0.4868644378
-0.1704927755 0.0527785323 -0.4141571409
-0.4843985884 0.0449303083 -0.1238754747
-0.4668574598 -0.0527785323 -0.1061055274
0.2530617651 0.0527785323 -0.3667440346
0.0044473469 -0.0499447814 0.4999691532
0.2430590219 -0.0527785323 -0.1156379251
-0.4970604762 0.0362550127 0.0540805923
0.0002701449 -0.0527785323 0.1003305675
-0.0527847228 0.0210335998 -0.0060883885
-0.3083455375 -0.0527785323 -0.1452628033
-0.0527847228 0.0458574713 0.3192252544
-0.4237817083 0.0527785323 0.1121872141
0.4986092946 0.0235542439 0.0369461550
-0.0190717875 0.0527785323 0.0935781795
0.0476283547 0.0293559632 -0.3915479107
0.3211521251 0.0005033154 0.2289607505
-0.0035653569 -0.0527785323 0.1471829830
-0.4068487356 0.0256568523 -0.2906212608
-0.2222791922 0.0408903104 0.3257953280
0.0722572454 0.0527785323 -0.4713830207
-0.0331511636 -0.0496241534 0.0527811975
0.0499922646 0.0088439901 0.0527811975
-0.3044061720 -0.0527785323 0.2637410262
0.0818028820 0.0002816449 0.4932304429
0.4841247877 0.0063559228 0.1249164118
0.4356937217 -0.0527785323 0.0608229324
0.2775607516 -0.0366567284 -0.0993072780
-0.4253971104 -0.0097687595 -0.2627420569
-0.4913897871 -0.0331856853 0.0924098933
-0.4299554646 -0.0527785323 0.1999925973
-0.3726262238 0.0155261748 0.1292796914
0.2845994841 0.0098821165 -0.1033710974
-0.2141550128 0.0519459815 -0.1845796118
-0.3946308133 -0.0527785323 0.2874185836
0.1561781010 0.0407204205 -0.0292269738
-0.4260788539 -0.0527785323 0.0289373859
-0.2567751664 -0.0527785323 -0.1720359726
0.3031549726 0.0527785323 -0.3117518508
0.3952759596 0.0527785323 -0.1128412204
0.2712854910 -0.0186343848 0.2863100841
-0.0404405200 0.0389299482 -0.3923438079
0.3959978159 0.0527785323 0.2827668091
0.0729458494 -0.0527785323 -0.0838546784
0.4007271579 -0.0527785323 0.1253446216
0.2007659145 0.0527341360 -0.0549697679
0.3768129702 -0.0185097312 0.1165398733
-0.2455664751 0.0483343553 0.3086680310
-0.2855653419 0.0527785323 -0.2778313189
0.4384063502 -0.0527785323 0.1586556505
-0.3013901561 0.0527785323 -0.3603616778
0.4124298197 -0.0318745060 -0.2826376245
0.3942191298 0.0111442607 -0.0116553499
0.0782366278 -0.0338797449 0.4938236962
0.4163181255 -0.0527785323 0.0885405306
0.0586658296 -0.0527785323 -0.4485015867
-0.4118102027 -0.0101070685 0.2835832625
0.4617203071 0.0527785323 -0.0285353645
-0.4195278421 -0.0527785323 0.0789676451
0.0797237408 0.0085240608 0.0772476301
0.2994447517 -0.0527785323 0.2856014910
0.1995453248 -0.0517108786 -0.4584538164
0.3867771184 0.0278798385 0.0771301640
-0.3092676313 -0.0527785323 -0.3114967819
-0.4249598626 -0.0527785323 -0.1623431227
0.0655993566 0.0486049460 -0.0988181104
-0.0527847228 0.0098335221 0.2860900671
0.3017187989 -0.0527785323 0.3875884727
-0.0618699518 0.0527785323 0.4157811895
0.0549447661 -0.0527785323 -0.4037037111
0.3802062263 -0.0054101952 0.1048947027
0.3690396201 -0.0527785323 0.3250647972
-0.0320616918 0.0455097784 -0.3931208270
-0.2156683225 -0.0246951290 -0.3302149807
-0.0481772949 0.0527785323 -0.4409434892
0.0527723418 0.0408103581 0.1242947151
-0.1957884720 -0.0018430907 0.4600440767
0.4492315967 -0.0527785323 -0.1276173587
-0.4198731507 -0.0527785323 -0.0194090671
0.4471667164 0.0527785323 -0.1657805226
0.0218659981 0.0527785323 0.4024035349
-0.0172917089 -0.0527785323 0.0648703706
0.0864194338 0.0527785323 0.4661519217
-0.0527847228 0.0372455987 0.1070068615
-0.1989392730 -0.0527785323 -0.1718196843
0.0289998467 -0.0112707844 0.0527811975
0.3552119363 0.0527785323 -0.2783049765
0.3104635079 0.0527785323 -0.2597715174
-0.3771960881 0.0527785323 0.3159655340
-0.3614584729 -0.0335853968 0.3454468216
0.0527723418 0.0287054991 -0.0054196055
-0.4999683083 0.0001348397 -0.0018200286
0.0403431548 -0.0078083700 0.0527811975
-0.3143193399 0.0527785323 -0.3433146493
-0.3972416076 -0.0527785323 0.0280765150
-0.1255157465 -0.0448534810 0.4839754650
0.3841018141 -0.0293631251 -0.0897138683
0.1094851776 -0.0308763889 0.0183192190
-0.4531770251 -0.0231876571 -0.2112308084
0.2096677525 -0.0527785323 0.4300641477
-0.0472825121 0.0527785323 0.1535310334
0.0385197519 0.0527785323 0.4516570107
-0.3865054468 -0.0135262148 0.3171832722
0.3990994373 0.0527785323 -0.0709259967
0.4244029095 0.0527785323 0.1204303866
0.0847914147 -0.0527785323 -0.4925468564
0.0796005857 -0.0389449635 0.4935936701
0.3121501473 0.0527785323 -0.2402665832
0.4173644028 0.0527785323 0.2495686443
-0.0577664537 -0.0527785323 0.4147394868
-0.1548897543 0.0525190112 -0.3627200837
-0.1800240248 -0.0527785323 -0.4050310528
0.0527723418 0.0435004105 0.3538374750
-0.3369338245 0.0527785323 -0.1485812413
0.2440538670 -0.0527785323 0.4099881975
-0.3282274618 -0.0295389695 0.3771535806
0.0527723418 -0.0493750282 0.3844611114
0.0242127775 0.0268339542 -0.3936627229
-0.2097924172 -0.0107001180 0.4538550615
0.3794299047 0.0527785323 0.3212994561
-0.1150524728 0.0265965643 0.3772917893
0.3109123772 0.0051554407 -0.2427128025
0.4528000093 -0.0223591788 -0.2119872848
-0.0271596304 -0.0527785323 0.2793783662
0.3408743768 -0.0527785323 0.2375678346
0.0112617809 -0.0527785323 0.2610442971
-0.0418535818 -0.0072586972 -0.4982363714
-0.1568243863 0.0384399101 -0.4747511444
0.0361482996 0.0189984365 0.0527811975
-0.3302722532 -0.0527785323 0.2856450719
-0.3238602136 -0.0091583953 0.2251240861
-0.3929737717 -0.0527785323 0.2633078115
-0.2968775707 0.0325380301 -0.2596960725
-0.0517644826 0.0527785323 0.3136962791
-0.4661067859 -0.0002442943 -0.1808646162
0.2267422744 -0.0192438354 0.3227371793
-0.0397382750 0.0527785323 0.4236766553
-0.2304502942 -0.0527785323 -0.1049953583
0.2943380401 0.0259314594 0.4041770105
0.4673744018 0.0527785323 -0.1298520637
-0.3424690085 -0.0307731113 0.3642924841
-0.4711629734 0.0527785323 -0.0453108703
0.3395465501 -0.0527785323 -0.2992640207
-0.4673743385 -0.0248501752 0.1776734784
-0.2773555865 -0.0527785323 -0.1362711441
0.2802384014 -0.0527785323 -0.1130830641
0.1858561159 -0.0360834842 -0.3478743748
-0.2145847592 0.0527785323 -0.3722528907
-0.4642263675 -0.0455810150 -0.1856948084
0.3939203036 -0.0246069664 0.0195392623
0.0298094748 0.0116830017 0.0527811975
0.1378840553 0.0520139606 0.4805743679
0.3163100874 -0.0136449217 0.3871808340
0.2987630478 -0.0527785323 0.3460490948
0.0652736556 -0.0391831719 -0.4956753136
-0.4935616542 0.0527785323 -0.0159117835
0.2556246356 0.0094292496 0.3003504304
-0.0527847228 0.0318104531 0.3603627906
0.3128510149 -0.0527785323 -0.1728184277
-0.0054719315 0.0527785323 0.3992753823
0.4249655869 -0.0435383035 -0.2634184863
0.2629486362 0.0246525418 -0.0908709783
0.0411238883 0.0527785323 -0.0576109709
0.0527723418 -0.0451842008 0.3419072978
0.2897691803 0.0527785323 -0.2885058183
-0.0205026752 0.0527785323 0.1569462662
0.4293591924 -0.0527785323 -0.1602592409
0.0374260455 0.0144876266 0.0527811975
-0.4912034862 -0.0122318869 -0.0933830829
0.0325589739 -0.0527785323 0.4904412726
0.4184363771 0.0527785323 0.2131407970
0.3770944921 0.0008966717 0.3283262697
-0.3328936894 0.0156885891 -0.1312466190
0.3535168140 0.0527785323 -0.2814836613
0.3841384114 -0.0509053906 0.0894022665
0.0310714887 -0.0527785323 0.3532851623
0.4824524539 -0.0044362937 -0.1312514181
-0.2468595420 -0.0527785323 -0.1849095826
0.3943933466 -0.0426477868 0.0013747590
-0.4524778759 -0.0527785323 -0.1031192618
0.3291610448 0.0527785323 -0.3097364329
-0.0295244114 0.0527785323 -0.0822539501
0.2396774529 0.0381453478 -0.0774353506
0.0064055936 0.0527785323 0.4052152773
0.0646267190 0.0527785323 0.0422623551
0.2951730799 -0.0008226380 -0.1094757648
-0.1173055046 0.0527785323 0.4105096844
0.4811003034 -0.0466241633 0.1361163069
0.4326502069 0.0238911796 0.2506179001
-0.4993469043 -0.0365787926 -0.0254084086
-0.1258800157 -0.0126388892 0.3737835533
-0.0527847228 0.0107705956 0.1588410257
-0.2490796519 -0.0527785323 0.3453083107
0.2383955015 0.0527785323 0.4186149234
-0.3672143507 -0.0464374563 -0.1439466169
-0.1257847656 0.0527785323 0.4066162070
0.4259610402 -0.0188399163 -0.2618095195
0.2099746304 -0.0307053874 -0.3338884093
0.0044817696 -0.0065163715 0.4999693618
0.3954061106 -0.0467921604 -0.3060019262
-0.3949559984 -0.0527785323 0.2688476961
0.3092325773 -0.0527785323 0.3874800935
0.2870679110 -0.0508583905 0.2705061504
-0.3524435940 0.0288576219 0.3546216944
0.0566245728 0.0527785323 -0.4793109746
0.3964155047 0.0157564049 0.3046629470
0.2685021590 0.0527785323 -0.1363031078
0.1169024270 0.0527785323 0.4333736606
0.0788870801 0.0277865760 -0.3864563159
0.2694219212 -0.0397708749 -0.2164951307
0.4139299413 -0.0206514180 -0.2804388875
0.0852948037 -0.0527785323 0.3907599502
0.2026500507 -0.0423297637 -0.3383926971
-0.0527847228 0.0433121557 0.0410172231
0.0514812290 -0.0205263011 0.4973386019
-0.0861953602 -0.0245634850 0.0699388866
-0.2655827170 0.0366187915 0.4236194774
-0.2938531396 -0.0016530479 0.2630833469
0.4773242541 -0.0527785323 -0.0348402954
0.3807173781 0.0346396514 -0.3240887204
0.1633647418 0.0247646521 0.4725596529
0.1605966806 -0.0527785323 -0.4414187273
-0.4415991957 0.0527785323 0.0908804051
0.1494082802 0.0464964045 -0.1472052181
-0.3846265094 0.0009413433 0.0874140758
0.0318016921 0.0527785323 0.1091565932
-0.3286820141 0.0527785323 -0.2510333147
-0.1940780808 -0.0527785323 -0.3926826708
-0.2685103238 -0.0454820982 -0.2159616680
0.3887348071 -0.0527785323 -0.1462162052
0.2036799975 0.0527785323 -0.1679407572
-0.4689167265 -0.0028216157 0.1735234481
-0.1060480914 0.0527785323 -0.3818865714
0.0958249050 0.0080187561 0.4907198965
-0.3828184165 0.0527785323 -0.1789947563
0.0018838561 -0.0527785323 0.3848061683
-0.2538333343 0.0060731738 -0.4307639449
0.0718049878 0.0527785323 -0.3908951845
-0.3190119206 0.0527785323 -0.2603277945
-0.2529739179 -0.0527785323 -0.1797391311
0.2312304680 -0.0390693312 0.4433136634
-0.4997213976 -0.0204143720 0.0163290296
-0.3682267860 -0.0276818264 -0.3382494350
0.0084520582 0.0527785323 -0.0951026567
0.4406162786 0.0527785323 0.1538039311
-0.2454955330 0.0414659527 0.3086823760
0.2556529651 0.0255633785 -0.2085456170
0.3556283527 -0.0527785323 0.2263930197
0.3834431295 -0.0527785323 0.1470166656
0.3482676397 -0.0481402626 -0.3587299786
0.0417340435 0.0527785323 -0.4843980905
-0.3331710796 0.0527785323 -0.3601068272
-0.2742861215 -0.0527785323 -0.1977571351
-0.0577258510 -0.0527785323 -0.4636587644
0.3628656163 -0.0527785323 0.1834509794
-0.0700208946 0.0527785323 -0.0192466890
0.0434154206 0.0527785323 0.1171176330
-0.3578417952 0.0215484348 -0.3491782394
-0.2182308177 -0.0527785323 0.4390174292
0.3042693854 -0.0527785323 -0.1327506045
0.3973677237 0.0527785323 0.1534487637
-0.0595583646 0.0527785323 0.0731844336
-0.4381310135 -0.0527785323 0.1680828953
-0.0714311772 -0.0527785323 0.4434171829
0.1226572712 0.0501501570 0.3748868072
-0.2567189005 -0.0037208553 -0.2994259599
0.3117043902 -0.0193629782 -0.2409069192
0.0026608474 0.0384567859 0.4999733431
0.4023474854 -0.0527785323 -0.1820376745
0.0231712590 0.0088970707 -0.4994445852
-0.0140690897 -0.0144638570 0.4997952401
-0.2821965052 0.0527785323 -0.3339609403
-0.4999337501 -0.0396571213 -0.0087651755
0.3459109934 0.0527785323 -0.1972464581
-0.1813100373 0.0527785323 -0.0513228782
0.3883232435 0.0268486902 0.0689887898
-0.3582337989 -0.0527785323 0.3423542827
0.2108839057 0.0398971504 -0.4532991717
0.2569165579 -0.0068309919 0.2992628994
-0.2264778924 -0.0093776466 -0.3229364064
-0.2348876453 -0.0527785323 -0.1673668891
-0.1422321958 0.0475467241 -0.1430549497
-0.4658257622 -0.0527785323 0.1789176393
-0.2756784585 0.0527785323 -0.1596047077
0.1056435536 -0.0510536589 0.0340694198
-0.3123345589 -0.0020774375 -0.3904009878
0.3527905499 0.0180799990 -0.1427412275
-0.0505068036 -0.0520024609 -0.0527758672
0.0112924895 0.0068801983 0.4998640310
-0.0991889002 0.0455822965 0.4900474652
-0.3164394835 -0.0174340222 -0.1217467759
0.3462083086 0.0527785323 -0.2751921988
-0.0985676856 -0.0352447365 0.4901910800
0.3735203177 0.0211779358 0.1266878219
-0.0818891494 0.0110829838 0.3858572704
0.2227193863 -0.0527785323 -0.4291170385
0.0769838495 -0.0370696937 0.4940060881
0.3994332773 0.0107409040 0.3007536550
0.2042648663 0.0527785323 -0.0711531689
0.0885241779 -0.0527785323 0.0519517110
-0.2715930832 0.0527785323 -0.1688513137
-0.0778155061 0.0301679088 -0.4938871980
0.0525924884 -0.0527785323 0.3925686164
-0.0814019847 0.0093570991 0.0755953272
-0.3808454852 -0.0189029258 0.1026409244
0.1228541903 0.0074306609 -0.4846439677
0.4998600363 -0.0484537848 0.0113232555
0.1237540816 0.0517456451 -0.1323937650
-0.3597333422 -0.0122481152 -0.3472558890
0.2783427498 -0.0413993967 -0.4153256151
-0.3633645687 0.0527785323 -0.2113736967
0.4517423453 0.0527785323 0.1584126462
0.1086908047 0.0267994345 -0.4880106420
0.1091817274 -0.0040363438 0.0203456532
-0.3264293275 0.0146374307 0.3786798240
0.0896929991 -0.0527785323 -0.4273831155
-0.1727989039 -0.0527785323 -0.1491310965
-0.0003953186 -0.0119119775 -0.1110951661
0.2897824242 0.0439805500 0.2675812032
-0.1654437372 0.0527785323 -0.0821000430
-0.2334784063 0.0527785323 -0.3542544086
-0.2291094785 0.0265489994 -0.0713267783
0.0646311476 0.0527785323 -0.0826577533
0.0527723418 0.0354060914 -0.0520007078
-0.2950401783 0.0527785323 0.3672543026
0.4724485747 -0.0020229206 -0.1636039483
0.0206500067 -0.0135673757 0.0527811975
-0.0695000177 0.0527785323 0.0651168156
-0.4766502247 0.0373403620 0.1509731711
0.1099492763 -0.0527785323 -0.3956066483
0.0251720718 -0.0527785323 -0.0594466136
0.3854357570 0.0123845311 -0.0835796828
-0.4526873369 -0.0527785323 -0.0100105789
0.4026573051 0.0527785323 -0.0649353497
-0.2229580384 -0.0527785323 -0.0767998282
-0.1295537251 0.0015978829 0.4828982821
-0.2401472367 0.0527785323 0.4148683570
-0.1101157508 -0.0070772961 0.0141948975
-0.0527847228 0.0144214143 0.3231730194
0.3109079135 -0.0527785323 -0.1437658021
-0.1039613501 -0.0527785323 -0.4861472795
0.2630300428 0.0397778055 -0.4251776095
-0.3908552017 -0.0527785323 0.2514257718
-0.2649628499 -0.0091651301 -0.2921620582
-0.4129080826 0.0413714468 0.2819191980
0.3999932421 -0.0527785323 0.2683781081
-0.1044909230 0.0144124368 0.4889654473
0.1489791095 0.0204282842 -0.4772707244
-0.0000348940 0.0232636244 -0.3943991933
0.3932791853 0.0527785323 0.0503511548
-0.4581007566 0.0527785323 -0.0000291184
-0.4437715062 0.0527785323 0.1752228423
0.0287412573 -0.0527785323 -0.4726965957
0.0286919467 0.0527785323 -0.4295823059
0.4695327728 0.0527785323 0.0412051481
0.0568639042 0.0527785323 -0.4077697591
0.3415251900 -0.0334508636 -0.1362371670
0.1642840211 -0.0335038698 -0.3585734640
-0.0584752706 0.0527785323 -0.4060593013
0.0121773317 -0.0311539256 0.4998611151
-0.3197677004 -0.0068643361 0.2309229166
-0.0543279162 0.0527785323 -0.4122224816
-0.3778520312 -0.0527785323 -0.2167460215
0.0947838374 -0.0317123502 0.0579472540
0.1062865119 0.0527785323 -0.0142074109
0.3844489031 -0.0144200603 0.0880079088
-0.0076528690 -0.0527785323 0.4540887127
-0.2724985704 -0.0526914083 0.2851164418
0.3377864199 -0.0126771839 0.2035688819
0.0875220937 -0.0527785323 0.3974980795
0.3707186280 0.0527785323 -0.1599796956
0.0272354791 -0.0527785323 0.4835888178
0.3563341005 -0.0490853545 -0.1447870992
-0.4439758848 -0.0186507644 -0.2299410459
0.4646986823 -0.0527785323 -0.0729296041
-0.2576587406 -0.0290561767 -0.2096965029
-0.1838123449 -0.0527785323 -0.0888780653
0.1596242167 0.0527785323 0.4073738752
-0.3070686774 -0.0373664037 -0.2475621880
0.4203531913 0.0429114261 -0.2706915899
-0.0012752366 0.0527785323 0.3590197542
-0.2239243053 0.0155594162 0.4470602201
0.4665207706 -0.0206328941 0.1798703388
-0.1548850206 0.0435050218 -0.3627351326
0.3932299288 -0.0527785323 0.1942449387
0.3058229775 -0.0303731874 -0.1156244796
0.3043193375 0.0527785323 -0.3855288696
0.4344877690 0.0527785323 0.0905756247
-0.0918172201 -0.0080587992 -0.3835752095
0.1853399890 0.0311967490 0.4643581295
-0.3947733386 -0.0527785323 -0.2110783986
-0.0527847228 0.0475446840 0.1441966820
-0.4394698064 -0.0527785323 -0.1812850865
-0.3455862124 -0.0527785323 0.3359074721
0.2081108019 0.0364764946 -0.4546002158
0.2442077188 -0.0003732106 -0.0800509014
0.1360050244 -0.0527785323 -0.4332527414
0.2629048561 -0.0527785323 -0.3764333648
-0.3962080374 0.0527785323 -0.1862171620
-0.3691724375 0.0022135608 -0.3372075322
0.4858276427 0.0376673296 -0.1180796773
-0.4284937514 0.0527785323 0.0266227984
0.3541479891 -0.0441725395 0.1736421308
-0.2379029220 0.0406367463 0.4397466197
-0.4901145704 -0.0233962309 -0.0989540754
0.0527723418 -0.0249669268 0.2395264378
0.1372813074 -0.0527785323 -0.3893837338
0.4912580854 -0.0181570920 0.0930359266
0.2882327093 -0.0527785323 -0.3881560095
-0.2550083850 0.0527785323 -0.1679600553
0.0151248445 0.0527785323 -0.0685879333
-0.4447682718 -0.0527785323 -0.1161099488
0.0742880449 -0.0527785323 0.0719507791
0.0527723418 0.0508790970 -0.0354488776
0.2232605120 -0.0253606157 -0.3251096282
-0.0195204876 -0.0240124563 -0.4996123275
0.0527723418 -0.0328854750 0.3690783561
-0.0217696620 0.0527785323 0.1005889412
0.0745024800 0.0527785323 0.4005002627
-0.3308749393 0.0433278951 -0.3748302361
-0.4120589427 0.0527785323 -0.1020450754
-0.3163238954 0.0254003480 0.2355892990
-0.0797108612 0.0527785323 0.3924576796
-0.4780473487 -0.0425074724 0.1465324003
0.0454125245 -0.0527785323 -0.0813757134
-0.0527847228 -0.0469783354 0.2152436860
0.3462907747 -0.0527785323 0.2317661702
