0.2121151706 -0.0120384892 0.0274173608
-0.3031614749 -0.0453228908 -0.0274173608
-0.3698716271 0.0439667698 -0.0012153838
0.0495807618 -0.0063895784 0.0274173608
0.2096778883 -0.0148115782 -0.0274173608
-0.4748397390 -0.0662440404 0.0274173608
-0.3164111895 -0.0086795150 0.0274173608
0.2922255923 0.0434765773 -0.0012803144
0.1634061162 0.0192208663 -0.0131580188
-0.0082096589 0.0043899614 0.0274173608
0.4383589195 -0.0299761818 0.0274173608
0.2676309969 0.0233623811 0.0168963668
0.3362009041 -0.0062128014 0.0048250582
-0.0786548262 -0.0185094864 0.0274173608
0.4261768927 -0.0043878347 0.0144271393
-0.3736011196 0.0791414960 -0.0049023020
-0.1543300199 0.0192208663 0.0123114341
0.0094331294 0.0015440092 0.0274173608
0.0044835069 0.0192208663 -0.0202235746
0.3378144373 0.0134355890 -0.0169561263
0.3181397854 0.0872159210 0.0185019315
-0.4603422488 0.0049392191 -0.0065593737
-0.4134067263 0.0315801451 0.0168761040
-0.4364050696 -0.0240838326 -0.0274173608
-0.1910307672 -0.0149077212 -0.0274173608
-0.4509789896 0.0376609315 0.0170058731
-0.2924335637 0.0245772882 0.0230216746
0.4307547306 0.0436895302 -0.0274173608
0.3754986523 -0.0730717216 -0.0274173608
-0.4601985270 0.0068299103 0.0201723564
-0.1653674988 -0.0213568276 0.0054780982
-0.1380074562 -0.0213568276 0.0224883287
-0.3193243476 -0.0826966524 0.0274173608
0.1967598153 -0.0213568276 0.0086057996
0.1462974844 -0.0011090537 -0.0274173608
0.2809148615 0.0312766567 0.0116846508
0.2292259826 0.0192208663 0.0187801694
0.1642839452 -0.0213568276 -0.0062218195
0.4040275937 -0.0389942055 0.0071872610
-0.3245542787 0.0559032879 -0.0214339315
0.4199546286 0.0388436583 0.0220957139
-0.2463709727 0.0192208663 0.0271597756
-0.3059973956 0.0338262181 -0.0098574492
-0.0254497758 0.0117395833 -0.0274173608
0.0713630236 0.0192208663 -0.0004311049
-0.1709781470 -0.0213568276 -0.0063884833
-0.0177740908 -0.0202850193 0.0274173608
-0.3411285915 0.0687418518 0.0236711165
0.4139599139 -0.0723271548 0.0043921755
0.1465190680 0.0070570171 -0.0274173608
0.4387822305 0.0576712602 -0.0194830914
-0.0561809292 -0.0213568276 0.0045022562
-0.4312617105 0.0384456919 0.0274173608
0.2470370127 -0.0213568276 -0.0152769237
-0.1729960886 0.0192208663 -0.0133392953
-0.2970203817 0.0270264355 -0.0151290722
-0.1803528783 0.0003928400 -0.0274173608
-0.2537044749 -0.0218688746 0.0172108844
-0.3358418521 0.0002826656 0.0122258197
-0.1992416796 0.0188856375 -0.0274173608
-0.3399369043 -0.0466087124 -0.0159502590
-0.4842740238 -0.0488987617 0.0116897621
-0.2004383023 -0.0044119868 0.0274173608
0.4387544389 -0.0304730411 -0.0274173608
-0.0631775090 -0.0213568276 0.0165950568
-0.1029050781 -0.0213568276 0.0272499767
0.4189052542 -0.0698944720 -0.0091621484
0.4540880960 0.0452606406 0.0274173608
0.2225576649 0.0192208663 -0.0250613877
0.1233870722 0.0145844032 -0.0274173608
-0.4437952201 0.0432411055 -0.0274173608
-0.2356588213 -0.0213568276 -0.0053527028
-0.0799982692 0.0091391395 -0.0274173608
0.0787981479 -0.0213568276 -0.0148955417
-0.2856651752 0.0218823372 -0.0073119120
-0.0695431050 -0.0213568276 0.0133982489
0.4148727868 -0.0663431085 0.0274173608
-0.3027542080 0.0309918977 0.0157846382
0.4637963875 0.0208459360 -0.0087308859
0.3822332689 -0.0794577897 0.0186833563
-0.0921685973 -0.0213568276 -0.0180016846
-0.2816518625 -0.0339821676 0.0102125178
0.2793502202 0.0300257938 0.0004671027
0.0092256604 0.0192208663 0.0098315234
-0.1415185480 -0.0213568276 0.0244182480
0.4452322078 -0.0469097494 0.0108692392
0.0470319031 0.0192208663 -0.0106330746
-0.2730062085 -0.0074708298 0.0274173608
0.2058239774 0.0192208663 0.0252781113
-0.4452656530 -0.0641739938 -0.0060620672
0.3016259188 0.0739943710 0.0084262996
0.1159512128 0.0076778754 -0.0274173608
0.3683087070 -0.0783437494 -0.0251097998
-0.3137038525 -0.0002717276 0.0274173608
-0.2652134670 -0.0246017398 0.0259671421
-0.3344701076 -0.0871584935 -0.0107101417
0.4258761869 -0.0069639903 -0.0204323980
-0.4260653739 0.0051722720 -0.0236567038
-0.3358197291 -0.0029307172 -0.0113317753
-0.1363780127 -0.0213568276 -0.0021620507
-0.3638985383 0.0657735719 -0.0274173608
0.4184902956 -0.0374231486 -0.0274173608
-0.3858419963 0.0552366470 -0.0274173608
-0.2451171697 -0.0093056021 -0.0274173608
0.1214835398 -0.0213568276 -0.0177591532
-0.3234717530 0.0547602575 -0.0130283458
-0.4301995130 0.0442961939 -0.0274173608
-0.0174377031 0.0192208663 0.0207402901
-0.2519569033 0.0192208663 0.0104052588
-0.2242953595 0.0192208663 -0.0057213214
-0.1319454860 0.0192208663 0.0035541077
0.4038979351 -0.0390532535 0.0004531577
0.4730054283 0.0370791610 -0.0274173608
-0.1673418339 -0.0209149200 0.0274173608
0.2884549727 0.0385764873 -0.0147993047
0.3016293378 0.0850665001 0.0203366995
0.4783921012 0.0595252249 -0.0274173608
0.3563615292 -0.0379830364 -0.0081350116
-0.0865125311 -0.0169890430 0.0274173608
-0.4453261314 -0.0431824330 -0.0274173608
0.1850211084 0.0192208663 -0.0239703253
0.0207973154 0.0080831006 0.0274173608
-0.2522179883 0.0192208663 0.0010363018
0.3039290633 -0.0015816854 -0.0274173608
-0.1231124064 -0.0213568276 -0.0142733187
-0.3822501187 0.0634515895 -0.0274173608
0.0882738189 -0.0213568276 -0.0038620189
0.1681395220 -0.0213568276 0.0164081114
0.1695731675 -0.0213568276 -0.0063068311
0.4511168493 0.0098230785 -0.0274173608
0.4048244529 -0.0464880696 -0.0274173608
0.4870536775 0.0516591049 0.0273631567
-0.4564984367 -0.0754067775 -0.0192395038
-0.3640274837 0.0730272679 -0.0274173608
0.0335893551 0.0192208663 0.0146227550
-0.2886006343 -0.0409650160 -0.0148941640
-0.4810726834 -0.0835678817 0.0062188839
-0.4645891906 -0.0530687130 0.0274173608
-0.4806450826 -0.0452698151 -0.0096702072
-0.0113367369 0.0109125771 -0.0274173608
-0.2606605489 -0.0233680804 -0.0271675784
-0.3438460070 0.0258145042 0.0130667100
-0.4618363181 -0.0139600293 -0.0103812977
-0.0782566262 0.0192208663 0.0160641637
-0.4457808905 -0.0011800422 0.0274173608
-0.4195792494 -0.0315557295 0.0274173608
0.4304835632 -0.0621638675 0.0075388102
-0.0883291913 0.0192208663 -0.0263600692
-0.3610811275 0.0419591694 0.0274173608
-0.1139646843 -0.0213568276 0.0097117105
-0.2791528972 0.0202829537 0.0264321022
0.4410944365 0.0599834662 0.0256980815
-0.0056208394 0.0018038821 0.0274173608
-0.1458881051 0.0044935298 0.0274173608
-0.4042187246 0.0388543753 0.0181295738
-0.0710447514 0.0185481580 0.0274173608
-0.4991772462 -0.0654633079 -0.0242039922
0.3095497446 -0.0378269750 0.0048642003
0.3635486142 -0.0774636255 -0.0142724539
0.1547173645 0.0192208663 0.0155190086
-0.4507188962 -0.0353077770 0.0274173608
0.2626419070 0.0051038031 0.0274173608
0.1239615595 -0.0194144837 0.0274173608
-0.4625873148 -0.0677462535 -0.0274173608
-0.2612409968 -0.0234724515 -0.0251511425
0.0425572282 0.0069833297 -0.0274173608
-0.4621792019 -0.0151344831 0.0274173608
0.4475534090 0.0069617132 0.0274173608
0.3983793848 -0.0775087566 0.0037432388
-0.4336509958 -0.0525593366 -0.0123516121
-0.2292574268 0.0158836146 -0.0274173608
-0.3356812733 -0.0039430468 -0.0274173608
0.2825628600 -0.0207827227 0.0274173608
-0.4152681744 0.0379897047 -0.0274173608
0.1231341907 -0.0081040542 -0.0274173608
0.1094011255 -0.0096344073 -0.0274173608
-0.1112952422 -0.0031688539 -0.0274173608
0.2329550726 0.0192208663 -0.0075668687
0.2502184081 -0.0079476730 0.0274173608
0.1902799944 0.0131142571 0.0274173608
0.3400136429 0.0333601505 0.0212740794
0.3345101509 0.0872159210 0.0151750360
0.2179067104 0.0192208663 0.0068205047
0.4566637110 -0.0247872650 0.0100093373
-0.0827282189 -0.0213568276 -0.0028507358
-0.2907285874 -0.0139544928 0.0274173608
0.4381649509 -0.0551897919 -0.0096306725
0.2215135691 -0.0071169874 0.0274173608
0.4609519858 0.0067807358 -0.0197133635
-0.3678820742 0.0438308257 0.0274173608
0.3400136429 0.0368928295 0.0270919878
0.1785459323 -0.0002209644 0.0274173608
-0.3112852133 0.0393683304 -0.0153417492
0.4808234460 0.0454288663 -0.0131107642
0.0175226657 -0.0213568276 0.0175416480
0.0394065832 -0.0206952485 -0.0274173608
-0.1186683282 0.0003356009 -0.0274173608
-0.3091897771 -0.0871584935 0.0150672508
-0.4456972885 -0.0646056293 0.0118767363
-0.2248746246 0.0060324972 -0.0274173608
0.1448607233 0.0192208663 0.0192016138
0.0667811841 -0.0213568276 0.0255635984
0.0429146962 0.0065310736 -0.0274173608
-0.2089003522 -0.0213568276 -0.0115274408
0.3183839933 0.0376423683 0.0274173608
-0.4004549844 0.0748245058 0.0274173608
0.1495790585 -0.0208850636 -0.0274173608
-0.1261584503 -0.0119417493 -0.0274173608
0.1187161507 -0.0026246960 -0.0274173608
0.1525072239 -0.0213568276 -0.0251152240
-0.1431121443 0.0192208663 0.0090247588
-0.0717852977 -0.0186640492 -0.0274173608
0.2073145036 0.0085502824 -0.0274173608
0.0211254386 0.0059204250 0.0274173608
-0.4161859989 0.0712879846 0.0035467472
-0.4237925053 -0.0246320372 0.0274173608
0.3834515801 -0.0780520458 -0.0274173608
-0.4414584068 0.0032688416 -0.0274173608
-0.4950702023 -0.0596949333 -0.0188650455
0.0603805779 -0.0213568276 0.0250353717
0.2124131286 -0.0012953711 0.0274173608
-0.3399369043 -0.0463435416 -0.0078419594
-0.4331737940 0.0599419576 -0.0021737959
-0.4852432428 -0.0498679838 0.0094881539
0.3467183001 -0.0536363073 -0.0274173608
-0.3399369043 -0.0852970949 0.0080057038
-0.4602590737 0.0068748913 -0.0138910857
-0.2296895010 0.0192208663 0.0044812038
0.1147632135 -0.0107224793 0.0274173608
-0.2982885638 -0.0577626348 -0.0230069335
0.3151853652 -0.0444842177 -0.0193012977
-0.2702698856 -0.0269003817 0.0273945326
0.3140556900 -0.0430502096 0.0058451736
0.2912976943 0.0423498031 0.0274173608
0.3005986373 0.0637106081 0.0100170192
-0.3234092945 -0.0426576421 -0.0274173608
0.1300576661 0.0192208663 -0.0273511649
0.2867395244 -0.0239032481 0.0272107129
-0.4629505687 -0.0182835862 0.0113316552
-0.3399369043 -0.0363329324 -0.0195440317
0.4159578630 -0.0713773715 0.0233809249
0.2863202768 0.0303768905 0.0274173608
-0.0337710196 -0.0213568276 0.0156598925
-0.0652289772 0.0192208663 0.0204068043
0.2477595983 0.0192747419 0.0028327662
-0.4153131459 -0.0342214867 0.0160265177
0.0174206705 0.0192208663 -0.0073622456
0.3292998629 0.0872159210 -0.0215641374
0.1095840545 -0.0142770505 0.0274173608
-0.4258652592 -0.0068224409 0.0133730252
-0.3817375219 0.0452714655 -0.0053860592
-0.3101325960 -0.0645813210 -0.0274173608
-0.1424558506 0.0192208663 -0.0071272213
-0.2877324062 0.0111119208 -0.0274173608
0.4593435881 0.0782326178 0.0187307500
0.3191757201 0.0791622171 0.0274173608
0.4691909810 0.0880800107 0.0088454751
0.0746554463 0.0114898026 0.0274173608
-0.4850661279 -0.0795744372 0.0156079816
0.0560461522 -0.0213568276 0.0154323530
0.3102473704 0.0384143619 -0.0274173608
-0.3399369043 -0.0799659803 0.0222382607
-0.1866347643 -0.0213568276 0.0080680701
0.3633455065 -0.0477419726 -0.0274173608
0.3367501595 0.0087248792 0.0177134222
0.3049456826 0.0635185636 -0.0274173608
-0.4258418487 -0.0068786294 -0.0263243622
-0.1500761577 -0.0033182391 0.0274173608
0.4216730977 0.0330969922 -0.0274173608
-0.2893958826 -0.0012885700 0.0274173608
0.3083215558 -0.0037969246 0.0274173608
-0.3105119897 -0.0188083202 -0.0274173608
0.2513361716 0.0106479377 0.0274173608
0.4236178339 0.0156176637 -0.0133771873
0.4285711179 0.0474601476 -0.0013564029
0.1971834872 -0.0192831398 -0.0274173608
-0.0524971745 -0.0213568276 0.0133810834
-0.0209387884 -0.0213568276 0.0240980617
-0.0032724519 0.0192208663 0.0069098138
0.3214606337 0.0435184845 0.0274173608
-0.0245800843 -0.0105973749 -0.0274173608
-0.3026938121 0.0144985572 -0.0274173608
0.3065395547 0.0872159210 -0.0245766113
-0.1053776641 0.0061249849 -0.0274173608
-0.4580670049 0.0192640950 0.0000659268
0.4252238077 -0.0355191463 0.0274173608
-0.3223542832 0.0231769611 0.0274173608
0.3599853066 -0.0616541184 0.0274173608
0.3381326164 0.0218902747 -0.0274173608
-0.4635056722 -0.0200277909 0.0196090629
0.3016293378 0.0793199656 -0.0082685809
0.3478855844 -0.0307055350 0.0064893866
-0.2790201895 -0.0017915460 0.0274173608
-0.0807122885 0.0127385947 0.0274173608
-0.4527510143 0.0343246160 0.0164281477
0.0290325053 0.0192208663 -0.0130892091
0.2919878034 -0.0259072877 -0.0077092285
0.2927853023 0.0269434734 0.0274173608
-0.4414104287 -0.0603187695 -0.0236140998
0.4552530624 -0.0285432461 0.0098550288
0.3703494093 -0.0786445154 -0.0057010537
-0.4315577370 0.0588777528 0.0274173608
-0.3399369043 -0.0616563687 -0.0124047306
0.3964216944 -0.0425062319 0.0019654324
-0.4288573673 0.0634870971 0.0009946865
0.1713511766 -0.0213568276 0.0051526671
-0.2993920257 -0.0447580736 -0.0274173608
-0.4768501853 -0.0521265402 -0.0274173608
-0.3399369043 -0.0405295876 -0.0063236492
-0.0972324134 -0.0213568276 -0.0011456647
0.4238538136 0.0149710202 0.0179172544
0.2269967340 -0.0043472412 -0.0274173608
0.3263290263 0.0075264457 0.0274173608
0.3893274586 -0.0444904886 -0.0046662321
0.1680215303 -0.0213568276 -0.0005412667
-0.2313372263 0.0192208663 0.0202644248
0.3407225953 -0.0617001031 -0.0274173608
0.2115453137 0.0192208663 -0.0062831006
0.2572216466 0.0203579765 0.0194252294
-0.1664464356 0.0192208663 -0.0048413956
-0.3399369043 -0.0550513456 0.0175668453
0.0557316290 -0.0067595995 -0.0274173608
0.3410984798 -0.0212235491 -0.0048526093
0.1385812421 -0.0213568276 -0.0247227077
0.4076715870 -0.0366543983 -0.0073132886
0.1795418911 0.0192208663 -0.0090401731
0.4567668323 -0.0237360323 0.0274173608
-0.2194762593 -0.0134858332 -0.0274173608
0.4630402676 0.0182819680 -0.0022267418
0.1555339489 0.0104588316 -0.0274173608
-0.3399369043 -0.0254619029 -0.0258196909
0.2160287926 0.0192208663 0.0071767712
0.1189788152 0.0192208663 0.0114366962
-0.3014584798 -0.0742547717 -0.0167950418
0.2960856620 0.0503526012 -0.0236328728
-0.3480807284 0.0666238690 0.0274173608
-0.4492449656 -0.0681533064 0.0029237312
0.0819424828 0.0120916288 -0.0274173608
-0.1227298354 -0.0213568276 -0.0032720820
-0.0277129818 0.0119990021 -0.0274173608
-0.3855501479 0.0793798663 0.0199370259
0.2359836444 -0.0139992566 -0.0274173608
-0.3384829378 0.0154381606 0.0037048087
0.4997503968 0.0643558158 0.0094774248
0.2481195264 0.0192853481 -0.0183182161
0.1051451546 0.0192208663 0.0239775340
0.2993668668 -0.0127157555 0.0274173608
-0.0948197550 -0.0059393349 0.0274173608
-0.4515177247 0.0367595478 0.0234814704
0.2882513724 -0.0244445565 -0.0089476622
0.4162705978 0.0351596275 -0.0023374509
0.2306402700 0.0192208663 0.0106408189
-0.0080367214 -0.0113675823 -0.0274173608
0.2387661375 -0.0144263960 -0.0274173608
0.0954626379 0.0192208663 -0.0189167195
-0.2952842818 -0.0509130298 0.0182312294
-0.4637800444 -0.0818855288 -0.0274173608
0.1734989752 0.0192208663 -0.0075710073
0.3138048274 0.0318834215 0.0274173608
-0.3399369043 -0.0356380070 0.0173800228
0.1061014228 0.0192208663 -0.0093459691
0.2995833810 0.0209919657 -0.0274173608
-0.3015525992 -0.0769766113 0.0107236304
0.3061143530 -0.0345078962 0.0184160377
0.4905034361 0.0742712865 0.0009412394
0.1982667273 0.0083574129 0.0274173608
0.3966409284 -0.0779199916 -0.0009799522
-0.1422276329 -0.0152480286 -0.0274173608
0.4202432078 -0.0227014577 0.0210064651
-0.0353009297 -0.0213568276 0.0188477203
-0.3276891315 0.0531180938 0.0274173608
0.4335964118 0.0524854415 -0.0145241037
-0.3203597119 0.0513010153 0.0060208748
0.4560181222 0.0216904329 -0.0274173608
-0.4448326039 -0.0478668336 -0.0274173608
-0.4531687145 -0.0527449944 -0.0274173608
-0.3705269690 0.0787991204 0.0061681537
0.3011390600 0.0669184750 0.0078789936
-0.3188648633 0.0322478465 -0.0274173608
-0.1404422752 -0.0131615239 0.0274173608
0.0456761148 0.0032615394 -0.0274173608
-0.3076378736 -0.0222241632 -0.0274173608
0.1620524658 0.0001734970 0.0274173608
0.4822051458 0.0766149393 0.0274173608
0.4159838664 -0.0289258051 -0.0051387815
-0.4704397811 -0.0336639139 -0.0167601162
0.3136635723 0.0835243575 0.0274173608
0.2711664463 -0.0014682845 -0.0274173608
-0.4114671716 0.0336294656 -0.0040454349
-0.3862860649 0.0449762989 -0.0103326787
-0.1477815128 0.0029706006 0.0274173608
-0.3095710925 0.0373016633 -0.0087001315
0.2811358665 0.0315083066 -0.0133673835
0.0621249108 -0.0153785665 -0.0274173608
-0.1948440886 -0.0103806776 0.0274173608
0.4401028786 -0.0531344606 -0.0141321008
-0.1074311381 -0.0081410634 0.0274173608
-0.4234485099 -0.0157247349 0.0058999314
-0.0533504485 -0.0213568276 -0.0089784301
-0.0248531316 0.0192208663 0.0129470892
0.4733241445 0.0914505758 -0.0033061804
0.0649947642 0.0192208663 -0.0112101911
-0.4234451972 0.0161560076 -0.0019358689
-0.3396224168 -0.0183927564 -0.0048530872
0.1055297583 0.0084534761 -0.0274173608
0.1596425978 -0.0213568276 0.0167825416
0.4765560118 0.0411392089 0.0138601233
0.2061804788 -0.0034162402 0.0274173608
0.3166276937 0.0778399578 0.0274173608
-0.0844354846 0.0192208663 -0.0003171544
-0.3816518492 0.0795192385 0.0106624974
-0.3005133683 -0.0657966402 0.0081257576
-0.4613073551 -0.0585790903 0.0274173608
0.4147742710 0.0336633007 0.0144922509
0.0530286387 -0.0213568276 -0.0159586511
0.2163524504 0.0110625353 0.0274173608
-0.3855368023 0.0793363239 0.0037741474
-0.4296693299 -0.0485776707 -0.0218967799
0.3951866280 -0.0524523193 -0.0274173608
-0.4599121425 -0.0788204833 0.0128112662
-0.4776733915 -0.0507542343 0.0274173608
-0.3029311731 0.0311691242 -0.0003871930
-0.3857740671 0.0683415010 0.0274173608
0.3896254164 -0.0789312045 -0.0092376570
-0.3365987323 -0.0083109420 0.0026137861
0.3875328663 -0.0791073021 -0.0075805649
0.3400136429 0.0811535929 -0.0164373112
-0.4933765093 -0.0580012433 0.0136547253
0.4277516177 0.0223967366 0.0274173608
-0.0586365623 0.0168776735 -0.0274173608
-0.2368618625 0.0020449364 -0.0274173608
0.2526361077 0.0196454033 0.0089453484
0.3357958844 0.0005807380 0.0264554668
0.1324998574 0.0040904079 0.0274173608
-0.0749249701 0.0192208663 0.0140547484
0.3387476335 -0.0157619032 -0.0188870558
0.4605840985 -0.0002240992 -0.0259971257
0.0578628091 0.0192208663 0.0052368714
-0.4508299609 -0.0214680655 0.0274173608
-0.0602228555 -0.0192293917 0.0274173608
0.1497024642 -0.0213568276 0.0259315653
0.4605890908 -0.0013979538 -0.0188694889
-0.3035167580 0.0046687928 -0.0274173608
-0.1345653520 -0.0156987838 0.0274173608
-0.4169054279 -0.0358137687 0.0130220743
0.2811232603 -0.0225540257 0.0078389940
0.3016293378 0.0807023889 -0.0043107449
-0.3383117320 0.0670433967 0.0004026882
-0.1528253060 -0.0071981248 0.0274173608
-0.4017829168 0.0739698550 -0.0274173608
0.3638858652 -0.0775021704 0.0036235357
0.3970548052 -0.0682221024 0.0274173608
0.4252908961 -0.0320420591 -0.0274173608
0.0854280402 -0.0213568276 0.0251917477
-0.0661196048 -0.0102596272 -0.0274173608
0.0073612132 0.0097474038 0.0274173608
-0.2259021615 -0.0158185776 0.0274173608
-0.1727133301 0.0192208663 -0.0097648499
-0.3142077719 0.0431819812 -0.0117831548
0.3179901712 0.0036808047 -0.0274173608
0.0220345845 -0.0213568276 0.0176607499
-0.0980703969 -0.0155271775 0.0274173608
0.3169751677 0.0333178351 -0.0274173608
-0.3686957432 0.0691057747 0.0274173608
0.3042807129 0.0419497746 -0.0274173608
0.2214407067 -0.0107363052 0.0274173608
0.2589010857 -0.0213568276 0.0085723950
-0.0392265226 0.0054074157 -0.0274173608
-0.4782876845 -0.0429124225 0.0102066594
-0.3358015394 0.0012733930 -0.0159890210
-0.3061631051 -0.0703209726 0.0274173608
0.3400136429 0.0418145341 0.0073963188
0.0095680292 -0.0213568276 -0.0132000406
0.1564486622 0.0148042846 -0.0274173608
0.3127568244 -0.0325382388 -0.0274173608
-0.0379444337 0.0192208663 0.0155198585
0.1059992885 -0.0213568276 0.0101077232
-0.3390176702 -0.0164901678 0.0006772481
0.3400136429 0.0706273739 -0.0088557815
-0.0691656024 -0.0209978295 0.0274173608
-0.3079837421 0.0280163410 0.0274173608
-0.3363675824 0.0069060337 -0.0148154281
0.4142130950 -0.0307395515 -0.0120326785
0.2587299812 -0.0135142007 -0.0274173608
-0.3091925712 0.0008950680 0.0274173608
0.4073478612 -0.0724635449 -0.0274173608
0.4530261187 -0.0338388309 0.0141578395
-0.4317963275 0.0117759515 -0.0274173608
0.1493617667 -0.0067555359 0.0274173608
0.3392268055 -0.0170700323 0.0177620183
-0.4512030778 0.0374132001 0.0067449677
-0.1491089370 0.0192208663 -0.0188852875
0.2813825433 0.0315648413 -0.0071254917
0.2219499786 -0.0167738752 0.0274173608
-0.4289514465 0.0017725072 -0.0274173608
0.4254223945 0.0239177833 -0.0274173608
-0.3228767878 -0.0614284805 0.0274173608
-0.3743993525 0.0447930055 0.0228136387
-0.1808765849 0.0192208663 0.0187653278
0.4128829629 -0.0727936267 0.0024830649
0.0351112878 0.0192208663 0.0139020538
0.2627095368 0.0176927867 -0.0274173608
-0.3807569215 0.0795307935 -0.0210087384
-0.0544304288 0.0187536032 0.0274173608
0.1906952202 -0.0165616000 -0.0274173608
0.0705697984 -0.0213568276 -0.0087866069
-0.0454183262 0.0187330455 -0.0274173608
0.3167843830 -0.0290113561 0.0274173608
-0.3628891510 0.0660010357 0.0274173608
0.0477189972 0.0192208663 0.0266519369
0.0129485773 0.0192208663 -0.0071901756
-0.1015620817 0.0192208663 -0.0021443932
-0.3617807595 0.0410386942 0.0078502107
-0.3283915977 -0.0871584935 -0.0092643271
0.3382598364 -0.0668143899 -0.0051764974
-0.2381127151 0.0145853076 -0.0274173608
-0.0233915119 0.0150048241 -0.0274173608
0.4746795710 0.0900951526 0.0038146837
-0.4480431478 0.0183726947 0.0274173608
-0.1666246788 -0.0213568276 -0.0267186015
-0.4281724089 -0.0470807497 -0.0068484590
0.0272367037 0.0192208663 -0.0223958613
0.3061439927 0.0235534233 0.0274173608
-0.3911990568 0.0441494543 0.0012686601
0.4052040094 -0.0383686603 -0.0118757050
0.3085302466 0.0872159210 0.0044179236
0.2567262099 0.0088106057 0.0274173608
0.0720220252 -0.0013065014 -0.0274173608
0.1388900258 -0.0213568276 0.0127582036
-0.2867677041 -0.0267801605 -0.0274173608
-0.4628507638 -0.0181006310 -0.0211945060
0.3885059023 -0.0790016939 0.0141645489
-0.1944698468 0.0192208663 0.0059864450
0.2627865814 -0.0213568276 0.0043730251
-0.4826043545 -0.0472290846 -0.0135770579
-0.4228163573 0.0676034477 0.0133595242
-0.4203295902 -0.0392379310 0.0165665149
0.3168670396 -0.0354161509 0.0274173608
-0.4349923079 0.0512408409 0.0274173608
0.1558443813 0.0192208663 0.0162619265
0.4174842755 -0.0290015961 0.0274173608
0.4896668979 0.0751078268 -0.0009887467
0.2616387577 0.0029903044 -0.0274173608
0.3242926789 0.0356726108 -0.0274173608
0.4287407170 -0.0202281915 -0.0274173608
-0.1930078092 -0.0072094222 -0.0274173608
0.4358441778 0.0517769404 0.0274173608
0.4850436443 0.0797310869 0.0002502325
-0.4310313079 0.0160302002 -0.0274173608
-0.4586995103 0.0167657029 0.0201410812
0.2743231788 -0.0216114486 -0.0036818092
0.3016293378 0.0765423527 -0.0217045519
0.3966238829 -0.0500903545 0.0274173608
-0.2979672432 0.0276882112 0.0077139280
-0.4535514652 -0.0391876478 -0.0274173608
0.4886467518 0.0761279760 -0.0042155859
0.0071565252 -0.0213568276 0.0247697814
0.3494877426 -0.0555731390 0.0274173608
0.1630347053 -0.0183757388 0.0274173608
0.2144620217 -0.0213568276 0.0067548377
0.3400136429 0.0610527784 -0.0027595173
0.4550420125 0.0739310422 0.0106685464
0.2989132332 -0.0041467424 -0.0274173608
0.4463999623 0.0652889920 -0.0006559238
0.0606320263 0.0183281405 0.0274173608
-0.0097329991 -0.0053251879 -0.0274173608
-0.2743980230 -0.0047475736 0.0274173608
-0.1003086445 -0.0198730780 0.0274173608
-0.3085775692 -0.0513318005 -0.0274173608
-0.3399369043 -0.0234001596 -0.0218530794
0.3758650624 -0.0455902043 0.0274173608
-0.3418172531 0.0427189600 -0.0274173608
-0.0328125590 0.0122801356 -0.0274173608
0.2309685604 0.0192208663 0.0179019837
-0.0638353009 -0.0213568276 0.0255202461
0.3606184240 -0.0473584299 0.0274173608
-0.2637491132 -0.0170082193 -0.0274173608
-0.3373647445 0.0114166084 -0.0081734799
-0.4410579903 0.0520260608 0.0167284587
-0.3015525992 -0.0865147559 -0.0188757846
0.2900886972 0.0405740460 -0.0253588098
0.4255098760 0.0224953335 0.0274173608
0.4226497770 -0.0601133573 0.0274173608
0.4375861642 0.0243371223 -0.0274173608
-0.3115462414 -0.0871584935 -0.0207869757
-0.0095817910 0.0192208663 -0.0206462536
0.3370828580 0.0106977207 -0.0008746014
0.4913156834 0.0564051004 -0.0274173608
0.3361160716 0.0658730370 -0.0274173608
0.2777115936 0.0059337206 -0.0274173608
-0.1926695155 -0.0213568276 0.0202022342
0.1117576890 0.0192208663 0.0133332056
0.2162568787 -0.0213568276 0.0254297783
-0.1421122226 0.0192208663 0.0232151221
-0.2872907976 0.0079482191 0.0274173608
-0.2840893842 0.0213878888 -0.0082633728
0.4301288992 -0.0262462556 0.0274173608
0.3045980850 -0.0191557662 0.0274173608
-0.2881481100 -0.0403437955 0.0088495664
0.0923040874 -0.0180852542 -0.0274173608
0.4329027265 0.0041243380 -0.0274173608
-0.4699574163 -0.0888657572 -0.0074254266
-0.2677696346 -0.0079319502 0.0274173608
0.0561070268 -0.0149737540 0.0274173608
-0.4054501202 0.0756566003 -0.0184440664
0.2884212143 0.0383914945 -0.0016613309
-0.3174986483 0.0095311205 0.0274173608
-0.3010348986 -0.0696021869 0.0119327114
0.4584808983 -0.0179599327 -0.0211280781
-0.4891216292 -0.0755189310 0.0228936437
-0.4251114655 -0.0440198063 0.0224973199
-0.3333598360 0.0635647993 -0.0073515550
-0.3347286141 -0.0212667848 -0.0274173608
-0.3520844434 0.0389635620 -0.0274173608
-0.4217351729 0.0198533224 -0.0233897544
-0.4209578025 -0.0398661433 -0.0101583947
0.4425513523 -0.0466720945 -0.0274173608
0.4049046450 -0.0747855420 0.0274173608
0.3327291513 0.0872159210 -0.0263398995
-0.1643369288 0.0192208663 -0.0075150739
-0.4295273150 -0.0196413857 0.0274173608
-0.4944546811 -0.0590794179 -0.0026662181
0.4443445143 -0.0480831325 0.0120834307
0.2677887441 0.0231309035 0.0274173608
0.4241618494 -0.0139422413 0.0225144291
-0.2083348403 0.0119428082 -0.0274173608
-0.2973178598 0.0272060832 -0.0224720298
0.3138832589 -0.0353005010 -0.0274173608
0.2420194554 0.0192208663 -0.0146560906
-0.3628073688 0.0624291722 -0.0274173608
0.1482122389 -0.0213568276 0.0064199682
-0.3169172017 -0.0871584935 -0.0197664497
-0.2063961101 0.0192208663 0.0064169830
0.1893481243 0.0192208663 0.0049037226
-0.0433706187 -0.0206452070 -0.0274173608
0.4375927736 -0.0557603075 -0.0133378394
0.0354447235 0.0192208663 -0.0055671590
0.4515158550 0.0249337861 0.0274173608
0.0211818506 -0.0177302279 -0.0274173608
-0.1518211850 0.0191439060 -0.0274173608
0.0608067320 -0.0213568276 0.0251705100
-0.3114710770 -0.0571105482 -0.0274173608
0.4747913902 0.0899833301 -0.0037520725
0.3815739176 -0.0794271059 0.0206898206
-0.3286463608 0.0527400954 -0.0274173608
-0.4822505089 -0.0823900549 -0.0010332043
0.0946824293 0.0192208663 0.0109156978
-0.1564259832 -0.0135472117 -0.0274173608
-0.3257785275 -0.0871584935 -0.0113654399
-0.3399369043 -0.0865800974 -0.0049691531
-0.0682653259 0.0192208663 -0.0128416520
-0.2979582108 -0.0458653990 -0.0274173608
-0.3089392428 -0.0676199856 0.0274173608
-0.3335671123 -0.0611574479 0.0274173608
0.4428758209 -0.0166310349 -0.0274173608
0.4409335912 0.0547432548 -0.0274173608
0.4864144340 0.0783602972 0.0141925932
0.3759280730 -0.0448848554 -0.0060785174
-0.4566584860 -0.0484113361 0.0274173608
0.4406599878 -0.0395898234 -0.0274173608
-0.3316556398 -0.0560318878 0.0274173608
-0.4315165072 -0.0266085810 -0.0274173608
-0.2426642680 -0.0118143268 -0.0274173608
-0.3335707519 0.0636915392 0.0271694292
0.4901555178 0.0746192121 0.0186674476
-0.1195542511 0.0192208663 0.0248486238
-0.2753386380 0.0020336189 -0.0274173608
0.0416230699 0.0192208663 0.0025831761
0.3783321397 -0.0684884097 0.0274173608
0.2985666322 0.0557948265 -0.0274173608
0.4151336574 -0.0378371844 -0.0274173608
-0.2964078726 -0.0404359741 0.0274173608
-0.2930366147 -0.0024387202 -0.0274173608
-0.1721699341 0.0091011721 -0.0274173608
-0.0179766163 0.0061771967 -0.0274173608
0.2728730833 -0.0215194039 -0.0111103132
0.2744219796 -0.0216360463 -0.0184306668
-0.2009000439 -0.0001578343 -0.0274173608
-0.1400103613 -0.0213568276 0.0120408228
0.3570142576 -0.0383332796 0.0047468000
-0.4800891844 -0.0829958216 0.0274173608
0.3473182185 -0.0481580037 -0.0274173608
0.0139945112 0.0192208663 -0.0114854180
0.3400136429 0.0302804777 0.0096577298
0.0791959065 -0.0189804348 -0.0274173608
-0.3210775439 0.0001423483 0.0274173608
0.1336934864 -0.0077941216 0.0274173608
-0.1659766803 -0.0213568276 -0.0045342480
0.4280569588 -0.0200968310 0.0274173608
0.0835467573 0.0192208663 0.0060860799
0.3380490451 0.0164632749 -0.0274173608
-0.0817397593 0.0084069102 0.0274173608
-0.3202926292 -0.0522493465 0.0274173608
-0.3712587816 0.0788134850 -0.0166841593
-0.0609659626 0.0192208663 -0.0171644591
0.2406472301 -0.0129710062 0.0274173608
0.4330553020 0.0172007012 0.0274173608
0.2946903088 0.0276300869 -0.0274173608
-0.0003329095 0.0192208663 -0.0076386338
0.1197550086 0.0192208663 -0.0151267234
0.3359316729 -0.0015058324 -0.0031333046
0.4696788825 0.0885679121 -0.0060688082
-0.4366876130 0.0342124966 -0.0274173608
-0.2157306719 -0.0213568276 0.0075662813
-0.3916171200 0.0714743890 0.0274173608
0.4924012889 0.0723734321 0.0007065885
-0.0970814858 -0.0213568276 -0.0046035913
0.2043303868 -0.0213568276 -0.0212510696
0.4256727499 0.0082046990 0.0186534424
0.3368408288 -0.0092150956 -0.0216345989
-0.2616793681 -0.0234701153 0.0088747535
-0.4464329003 0.0451171159 0.0022504670
-0.4646975420 -0.0522791986 0.0274173608
0.4875052855 0.0772694411 -0.0231984504
-0.4532785142 -0.0721868550 -0.0057940533
-0.1251056204 -0.0213568276 -0.0110648572
-0.3399369043 -0.0797909170 0.0212965227
-0.4262892891 -0.0020703917 -0.0169995117
0.4804549895 0.0450604126 0.0056877804
0.1299102972 -0.0066272798 0.0274173608
-0.0461770740 -0.0213568276 -0.0081337949
-0.4246121977 0.0126270450 0.0254105994
0.3178997926 0.0735100268 -0.0274173608
-0.4709502456 -0.0344845999 -0.0145916396
-0.3324054619 -0.0738345540 -0.0274173608
0.4318985436 -0.0160636497 -0.0274173608
0.1880014579 0.0046342855 -0.0274173608
0.1444118612 -0.0213568276 -0.0257702095
-0.2135182349 0.0192208663 0.0261120914
-0.3186357334 0.0338583983 -0.0274173608
-0.0740504143 0.0011445368 -0.0274173608
0.2678820357 -0.0213568276 -0.0243117979
0.3990520294 -0.0415496224 0.0081228960
0.4574650549 -0.0221457851 0.0198889299
-0.0812684561 0.0192208663 -0.0127589186
-0.4020016770 0.0766270502 0.0011156627
0.1535716231 -0.0213568276 0.0109978445
0.3279821194 0.0374730115 -0.0274173608
0.2552245386 0.0199324724 -0.0263428559
0.0991661633 0.0192208663 -0.0223070080
-0.2575586328 0.0192208663 0.0165729097
0.1527072930 0.0192208663 -0.0103002402
-0.4428080771 -0.0284580985 -0.0274173608
0.1402870432 0.0008058231 -0.0274173608
-0.0759729137 0.0106334002 0.0274173608
0.2166921723 -0.0213568276 0.0165694702
-0.1735205487 -0.0008277459 0.0274173608
-0.1594598044 0.0022774100 -0.0274173608
-0.0818414380 -0.0213568276 0.0163182874
0.0883151770 0.0192208663 0.0182544809
-0.4218895007 0.0197299195 -0.0153244669
0.2166468101 0.0192208663 0.0184802128
-0.4603255445 -0.0213305303 0.0274173608
-0.3399369043 -0.0376778698 -0.0148235562
0.3375620144 -0.0119400505 0.0072021594
0.3727009206 -0.0731980146 0.0274173608
0.0024921558 -0.0213568276 0.0214146759
-0.2210605788 0.0065922580 -0.0274173608
-0.3002384415 -0.0159402900 -0.0274173608
-0.3015525992 -0.0858463470 0.0265469444
-0.3310414439 0.0094662600 0.0274173608
-0.3292345704 -0.0458859961 0.0274173608
-0.3948814933 0.0783119582 0.0180767034
0.4056865304 -0.0379741638 -0.0219905415
-0.0365488736 0.0107441579 0.0274173608
-0.2353028110 0.0192208663 0.0148249135
0.2984349618 0.0557759736 0.0062870321
0.2197128016 -0.0125610913 -0.0274173608
0.2872926964 -0.0232111821 -0.0274173608
0.4975312676 0.0672434595 0.0027826866
0.4603189905 0.0504786129 0.0274173608
-0.4549880137 -0.0738963545 0.0056712593
-0.3214502827 -0.0646296397 -0.0274173608
0.3413542313 -0.0215338304 -0.0193698549
-0.3085880099 -0.0871584935 0.0050599226
0.3195562392 0.0463433748 0.0274173608
-0.3551308653 0.0371891231 0.0059451502
0.3400136429 0.0702736673 -0.0071353084
-0.3399369043 -0.0728894471 -0.0180748969
0.4483611244 0.0081477025 0.0274173608
-0.3005731869 -0.0179800841 0.0274173608
-0.3318342660 -0.0460591768 0.0274173608
0.4151968706 0.0298232368 -0.0125019344
-0.0942827121 -0.0176158408 -0.0274173608
-0.4112635512 0.0338750354 0.0157257161
-0.3335201594 0.0597476229 0.0274173608
0.3134553145 0.0872159210 0.0069454425
0.2071107606 -0.0213568276 0.0201276099
-0.2771385683 0.0198893670 0.0067417571
0.4259777145 -0.0056969091 -0.0190426578
-0.4175328765 0.0705611834 0.0024704213
-0.3227933340 0.0540419546 0.0135204781
0.4208167812 0.0217517195 0.0086739254
-0.2532094770 -0.0132697120 0.0274173608
-0.3232131118 0.0545094705 -0.0080413761
-0.4208044106 0.0216661453 -0.0074971244
0.3766437857 -0.0448998475 0.0046591489
-0.3399369043 -0.0766164035 0.0230407523
-0.4450462189 -0.0107670143 0.0274173608
-0.3246745368 -0.0379932206 0.0274173608
0.4503499041 -0.0388727795 -0.0197482848
0.3138088752 0.0872159210 0.0039673449
0.1306016635 -0.0189661941 0.0274173608
0.2885111669 0.0193174904 0.0274173608
0.0119094191 0.0177885799 0.0274173608
-0.2294153424 -0.0213568276 0.0227615853
0.2934636393 -0.0043463444 0.0274173608
-0.2710231708 0.0193661528 -0.0158368944
-0.2097321236 0.0192208663 -0.0252313348
-0.4678413799 -0.0294369313 -0.0264087252
0.3098305995 0.0458005947 0.0274173608
-0.3399369043 -0.0558076194 0.0184132822
-0.3343621748 -0.0175628497 -0.0274173608
0.1493040239 0.0192208663 0.0015188390
-0.0913595473 -0.0097675184 -0.0274173608
-0.3403557440 0.0681930083 -0.0266974005
-0.3167651495 0.0465936406 -0.0090885346
0.1265261556 -0.0213568276 0.0135503136
-0.4178209476 -0.0264367017 0.0173190997
0.0367735418 -0.0069098674 -0.0274173608
-0.4165882135 -0.0281511243 -0.0174998662
-0.3897541490 0.0443212029 0.0184136587
-0.2879240160 -0.0149114806 -0.0274173608
-0.0810338555 -0.0213568276 -0.0038663718
0.1031230787 0.0023118917 -0.0274173608
0.2763782048 0.0167965782 0.0274173608
0.3230607495 0.0297426296 -0.0274173608
0.1437308910 0.0157858476 -0.0274173608
-0.4831417638 -0.0814987919 -0.0107023070
0.2686269098 -0.0213568276 -0.0093254388
-0.2052293254 0.0192208663 -0.0259167234
0.3432452538 -0.0391103235 0.0274173608
-0.2021269965 -0.0024832533 -0.0274173608
0.3460738756 -0.0501549478 -0.0274173608
0.3146520767 -0.0023990836 0.0274173608
-0.0634100074 0.0192208663 0.0198120248
-0.3262741968 0.0172350868 -0.0274173608
0.4174682535 0.0270024058 -0.0056082117
0.3016018261 0.0735630031 -0.0068739716
-0.2660911941 -0.0249957373 -0.0104164413
-0.0628743102 0.0192208663 -0.0266054043
-0.3499314706 0.0329742297 -0.0219158125
0.3025371164 0.0872159210 -0.0254535312
-0.1003215512 0.0192208663 -0.0026823812
-0.3179041466 -0.0871584935 0.0113404041
-0.2400887383 -0.0013692319 -0.0274173608
-0.3217731094 -0.0261863535 0.0274173608
0.0766586991 0.0192208663 -0.0243095520
0.1111792109 -0.0153543005 0.0274173608
0.3361393348 -0.0049555817 0.0200235339
0.0786699000 0.0143471750 0.0274173608
0.4285977648 -0.0120181014 -0.0274173608
-0.3381303230 -0.0140068380 -0.0257361176
-0.3895073937 0.0445140394 0.0130265454
-0.4359556943 -0.0041913934 -0.0274173608
-0.1258801394 0.0047408320 0.0274173608
-0.4500550081 -0.0689633489 0.0094461154
-0.4344906580 -0.0393559044 0.0274173608
0.1355223543 0.0192208663 0.0004812273
0.3328353322 0.0222080800 0.0274173608
0.0293389247 -0.0213568276 -0.0112003869
-0.3335411402 -0.0871584935 -0.0256252739
0.3340744608 -0.0639532717 -0.0150444307
0.4048657955 -0.0684004003 -0.0274173608
-0.1601252916 -0.0213568276 0.0145006578
0.4650770124 0.0238173296 0.0041915805
0.3323556105 -0.0626169517 -0.0087643655
0.1006207637 -0.0111975414 -0.0274173608
0.0681914159 0.0192208663 -0.0029284845
0.1875112291 -0.0213568276 -0.0185122339
0.4616001147 0.0122176942 -0.0202949395
0.2122005333 -0.0213568276 0.0015423604
0.4912198401 0.0558252615 0.0174685462
-0.1632486174 0.0192208663 0.0192135058
0.4638326085 0.0207624523 -0.0113927330
0.2637749201 -0.0213568276 0.0118751056
-0.3730859587 0.0445433263 0.0243194342
0.4072625323 -0.0526516861 -0.0274173608
0.3825281737 -0.0452383634 0.0190459041
-0.1538275103 -0.0032264101 -0.0274173608
0.1927173477 0.0026186647 0.0274173608
0.3230080334 0.0253264492 0.0274173608
-0.2551196578 0.0192208663 0.0135831345
0.0536617135 -0.0213568276 0.0063277857
-0.4707733355 -0.0340529094 -0.0100551550
-0.2958932623 0.0263457654 0.0197647727
-0.4550192163 0.0218123756 -0.0274173608
0.3579420393 -0.0388599657 0.0230925705
0.2551768325 -0.0092114977 -0.0274173608
-0.2750709033 -0.0293417482 -0.0153609503
-0.4557381393 -0.0373418120 0.0274173608
-0.1863889391 -0.0213568276 -0.0033371373
0.4243106017 -0.0137642296 0.0089100665
-0.4519591697 0.0052552457 -0.0274173608
-0.3118389615 -0.0013673448 -0.0274173608
-0.2656387269 -0.0248215756 0.0091551359
0.4444595967 0.0077224416 0.0274173608
-0.4596658504 0.0118770390 -0.0169001805
-0.1361399986 -0.0207897244 -0.0274173608
0.3014374923 0.0715680788 0.0094360999
0.2478678283 -0.0213568276 -0.0219056264
-0.4529159160 -0.0391299628 -0.0274173608
0.3616191162 -0.0406706936 -0.0167664388
0.3264541975 0.0383120506 0.0274173608
-0.2072605825 0.0167096600 0.0274173608
0.0651433611 0.0192208663 -0.0236938152
0.0413808963 0.0001926250 -0.0274173608
0.1075580186 0.0192208663 0.0037952282
0.2651390616 -0.0167955573 0.0274173608
-0.1574227900 0.0192208663 -0.0137833429
-0.0730449404 -0.0213568276 -0.0092568634
-0.4310872086 0.0617489071 -0.0225000375
0.3983973751 -0.0417190297 -0.0201865685
0.2528156851 -0.0059541770 0.0274173608
0.1098415615 0.0192208663 0.0263890645
-0.4393968866 -0.0425002415 0.0274173608
0.3497733947 -0.0326142383 -0.0111175731
-0.1063824744 -0.0206988987 0.0274173608
-0.2019277619 0.0192208663 -0.0217992930
-0.3083368700 0.0360374336 0.0010452275
-0.3198958754 0.0370804122 0.0274173608
-0.4391389329 0.0025778470 -0.0274173608
0.4399261448 0.0150302777 0.0274173608
-0.1398535842 -0.0213568276 0.0195073340
0.1489653298 -0.0213568276 0.0255836754
-0.2073165347 0.0173000226 0.0274173608
0.0700775851 -0.0139465296 0.0274173608
0.1235327769 -0.0159214032 0.0274173608
0.4307357048 -0.0153839080 -0.0274173608
-0.1811829109 -0.0084328065 -0.0274173608
-0.4535816048 0.0324594655 0.0111630298
-0.3395842048 -0.0499809621 0.0274173608
-0.3568097261 0.0436434404 0.0274173608
0.0768717760 0.0192208663 0.0226776788
-0.4487515006 -0.0676598414 -0.0004690356
0.4580700583 0.0769590880 -0.0213880649
-0.1985808415 -0.0198584420 0.0274173608
0.2542636784 0.0198082425 0.0168280183
-0.3399369043 -0.0448202276 0.0190857092
0.4633798550 0.0195495941 0.0244486269
-0.0079957486 -0.0213568276 -0.0013676494
-0.3586087862 0.0688279775 0.0274173608
0.1968700925 -0.0213568276 0.0056709668
0.4552133955 0.0415427124 0.0274173608
-0.2084367740 -0.0213568276 -0.0107570356
0.4774821814 0.0744030784 -0.0274173608
0.1617145546 -0.0213568276 0.0077306615
0.2017562922 -0.0076021509 0.0274173608
-0.2104088769 -0.0051170434 0.0274173608
0.4852638383 0.0498692616 0.0204377633
-0.0733605596 -0.0213568276 0.0073567424
-0.2274882562 -0.0168571337 0.0274173608
-0.3172600645 0.0040912417 -0.0274173608
-0.4299995300 -0.0453052131 -0.0274173608
-0.3763221950 0.0563933477 -0.0274173608
0.4805752939 0.0841994374 0.0237190825
-0.4764725340 -0.0410790422 -0.0109342661
0.4425737207 0.0569553011 0.0274173608
-0.4577212807 -0.0420171385 -0.0274173608
-0.4283850404 0.0638676798 -0.0233755076
0.2244196722 -0.0213568276 0.0087231974
-0.1873689980 0.0192208663 0.0038373522
0.3210016280 0.0215136514 0.0274173608
0.1149478577 -0.0213568276 0.0152836153
-0.4264611665 -0.0453695073 -0.0122666952
-0.3651238102 0.0778742841 -0.0218063190
-0.4207128645 -0.0217406072 0.0082464755
0.2860980456 0.0360298167 0.0167107642
-0.3239501153 -0.0607419995 -0.0274173608
-0.3399369043 -0.0741816509 -0.0273307239
0.2699266347 -0.0213568276 0.0027727568
-0.0490732299 -0.0167398115 0.0274173608
-0.0272581110 -0.0213568276 0.0224978534
0.3400136429 0.0798465184 0.0164267001
0.2009823510 0.0005346716 -0.0274173608
0.0864422941 0.0015554275 0.0274173608
-0.0050090009 -0.0213568276 -0.0190236428
-0.4245759384 0.0128771378 0.0089604865
-0.2415097416 -0.0213568276 0.0259648708
-0.4782002019 -0.0463750008 0.0274173608
0.0428213744 0.0192208663 -0.0081722690
-0.4375962001 0.0531627315 0.0274173608
-0.0991115331 0.0192208663 -0.0138056464
0.4168688964 -0.0525594876 -0.0274173608
-0.3924254085 0.0439136434 0.0164190905
0.4371186940 0.0186973793 -0.0274173608
0.4439645419 0.0471379022 -0.0274173608
-0.4964760579 -0.0681644962 0.0182169859
-0.4594994773 0.0128610421 0.0124769459
0.0982541807 0.0178435012 0.0274173608
-0.4387582099 0.0321352366 -0.0274173608
0.0414983727 0.0192208663 -0.0065865951
0.0421539913 0.0192208663 -0.0053727810
0.2798912480 0.0305230593 0.0125311422
0.4132287328 -0.0318187426 -0.0136996410
-0.0156247794 -0.0213568276 -0.0018761270
-0.2526953426 -0.0014044595 -0.0274173608
-0.2477168244 0.0192208663 -0.0060821500
0.4413340755 0.0566850106 0.0274173608
0.4141367975 0.0310996051 -0.0127076891
-0.2983823026 0.0279416075 -0.0141951403
-0.4324599050 -0.0513682458 -0.0040483511
0.0856385988 0.0192208663 -0.0145100073
-0.2929906698 -0.0396768066 0.0274173608
-0.0125627053 -0.0213568276 -0.0163213689
-0.2455491157 -0.0163780295 0.0274173608
-0.2838760208 0.0213513332 0.0018796481
-0.2015747151 -0.0076367157 0.0274173608
-0.2724596548 -0.0279702376 0.0173360338
-0.4997859871 -0.0644107172 0.0178121169
0.4304590104 0.0493480400 0.0075578169
-0.1251423201 -0.0213568276 -0.0178451376
-0.1085729809 -0.0080216736 0.0274173608
0.1382440978 0.0192208663 0.0269848170
-0.4621046964 -0.0246351820 0.0274173608
0.3988725121 -0.0774359096 -0.0185103973
-0.3012734516 -0.0714427995 0.0036883976
-0.3940108449 0.0783664796 -0.0076474854
-0.1989114939 0.0103681204 -0.0274173608
0.3393526885 -0.0344946155 0.0274173608
0.3012863391 0.0682021851 0.0170837711
-0.2893151546 -0.0068776872 -0.0274173608
0.4946391990 0.0592446198 0.0192458503
-0.4207695202 0.0216035650 -0.0172387426
-0.4569215238 0.0236472279 -0.0082865694
-0.3027402725 -0.0236414893 -0.0274173608
-0.4165913924 -0.0354997332 -0.0111464279
-0.1824456009 -0.0194226171 -0.0274173608
0.4371473911 0.0560364208 -0.0034558386
0.1968451851 -0.0213568276 0.0072829552
-0.2307921131 -0.0213568276 0.0177821984
0.3400136429 0.0404772821 -0.0041614072
-0.1270428171 -0.0213568276 0.0032711132
0.4645417640 0.0223918035 0.0119273357
0.2026381266 0.0192208663 0.0055973176
-0.3539826177 0.0681435286 -0.0274173608
-0.3242513569 0.0256377050 0.0274173608
-0.4593843525 -0.0254201065 -0.0274173608
0.3697194254 -0.0599577520 0.0274173608
-0.1182457239 -0.0213568276 -0.0198519311
-0.2256799348 -0.0120482568 -0.0274173608
-0.1116182301 0.0192208663 -0.0273534248
-0.4792080795 -0.0842606463 -0.0274173608
0.4221614042 0.0234887355 0.0274173608
-0.1864526129 -0.0213568276 0.0257684104
0.4182477098 -0.0442971766 0.0274173608
-0.3011948598 -0.0703083776 0.0041935971
0.4732795131 0.0372999688 0.0238713847
0.4289829562 -0.0633839796 0.0146989597
-0.4394145823 -0.0087627754 -0.0274173608
-0.4605293826 0.0006217174 -0.0204516819
0.3400136429 0.0454961960 -0.0198507417
0.3362411486 0.0278767972 -0.0274173608
-0.0440980037 0.0192208663 0.0174833496
-0.1696536335 0.0192208663 -0.0259350967
-0.0125952254 -0.0213568276 -0.0228959675
0.4218734266 -0.0196202223 0.0007318262
-0.0580527285 -0.0138597268 -0.0274173608
-0.3386717395 -0.0871584935 0.0228579921
-0.0641387385 0.0192208663 -0.0164871487
0.4166322055 -0.0281113979 0.0079902137
-0.3199263772 -0.0064057028 0.0274173608
0.0359107613 -0.0213568276 0.0258861374
0.3860253815 -0.0589737990 0.0274173608
0.3080719411 -0.0364640615 -0.0096293628
0.0758747712 -0.0025510117 0.0274173608
0.3360373468 0.0490661965 -0.0274173608
-0.4507929914 0.0381767500 -0.0114292901
0.3214741023 -0.0524839569 -0.0264948103
0.4913286867 0.0734460378 -0.0210454526
0.0105445442 -0.0162045092 -0.0274173608
0.2774596759 -0.0218825953 -0.0242997300
0.4615799188 0.0121931522 -0.0073950682
0.3650241646 -0.0422082367 -0.0242727533
0.4828809288 0.0748831564 0.0274173608
0.0639833108 -0.0192686082 -0.0274173608
-0.4225592763 -0.0181946112 0.0120427482
0.4674750158 0.0458509579 -0.0274173608
-0.4553828750 -0.0437613637 -0.0274173608
-0.2390281023 -0.0213568276 0.0220753587
0.3443245219 -0.0703653981 -0.0219880509
-0.0600508400 0.0104435428 0.0274173608
0.2854708611 -0.0154370986 0.0274173608
0.3024616660 0.0430521973 0.0274173608
-0.1791657855 -0.0134965692 -0.0274173608
0.2054514292 0.0192208663 0.0120813194
-0.3173359544 -0.0654631009 -0.0274173608
-0.3295344441 -0.0871584935 0.0006812666
-0.2676414572 -0.0256274939 0.0250603708
-0.2469108133 -0.0213675994 -0.0089281718
-0.4605066946 0.0005773985 -0.0255085967
0.0559946162 -0.0213568276 0.0235343279
0.1580206181 -0.0213568276 0.0206126908
0.3017208882 0.0449977499 0.0274173608
0.3288285875 -0.0044698763 -0.0274173608
-0.3243866812 0.0557520596 0.0093962065
0.4506285230 0.0695175527 -0.0084165172
0.0230867613 -0.0213568276 -0.0018804109
-0.3399369043 -0.0454620502 -0.0043671765
0.4837294789 0.0810452420 -0.0097203328
0.3017010686 0.0872159210 0.0165763159
0.3736224354 -0.0447019434 -0.0175241392
0.3014178122 0.0713024667 -0.0005696264
-0.0223603758 0.0180329628 0.0274173608
0.3653245789 -0.0778488257 -0.0135827693
0.4634297846 0.0196816674 0.0008250704
0.3064207312 -0.0347833750 0.0001190513
-0.4738839096 -0.0380088685 -0.0064144437
0.4322330542 -0.0585156266 -0.0274173608
0.2082538409 0.0192208663 0.0002956190
0.0763150458 0.0192208663 0.0035610034
0.4742357625 0.0722405438 0.0274173608
0.3797369364 -0.0452526201 -0.0074382799
0.3341360087 0.0872159210 -0.0176651974
0.4602256844 -0.0079655383 -0.0039909732
-0.3290386936 -0.0837511926 -0.0274173608
-0.1572681087 0.0185997162 0.0274173608
-0.0779756903 -0.0126753039 -0.0274173608
-0.3511528194 0.0736442809 0.0210574403
-0.3021959347 0.0127048313 0.0274173608
-0.3358132947 0.0015276598 0.0168425955
-0.1239876353 0.0192208663 0.0135976036
0.0573292454 0.0125154891 0.0274173608
0.3015890929 0.0732274319 -0.0178864924
0.3866625207 -0.0449256449 -0.0074339370
0.4484343748 -0.0421925977 -0.0128250726
-0.2789402710 0.0202827289 -0.0078722312
-0.4047273439 0.0758914467 0.0209408080
0.0162777319 -0.0213568276 -0.0205469405
-0.3376573136 0.0129357467 0.0008725172
-0.3780178177 0.0794225676 -0.0115949744
-0.2095373094 0.0192208663 0.0171027896
0.0860600589 0.0192208663 -0.0233094585
0.4984959458 0.0631013648 0.0137803719
0.0341697553 -0.0213568276 0.0252683810
0.3512487465 -0.0340878817 0.0052460058
-0.2088837743 0.0156204713 -0.0274173608
0.4538688882 -0.0313881330 -0.0274173608
-0.4420353345 -0.0407763899 -0.0274173608
-0.4091731834 0.0517570799 0.0274173608
-0.4891436151 -0.0537683562 -0.0243151175
-0.3634067369 0.0515113579 -0.0274173608
0.1706329929 -0.0213568276 -0.0101374468
0.3439837051 -0.0257559634 0.0262814751
-0.0388471822 -0.0040068721 0.0274173608
-0.2206768436 0.0192208663 -0.0091091259
0.4276874384 -0.0306622551 -0.0274173608
0.3007496229 0.0645243813 -0.0087896295
-0.4940691902 -0.0705713685 0.0005443205
0.1884718301 0.0059809880 -0.0274173608
-0.4539183596 0.0317149312 0.0101863628
-0.0876855712 0.0192208663 -0.0143364961
-0.4881904550 -0.0764501038 -0.0164411093
-0.3517395409 0.0365261168 0.0274173608
0.2506977398 -0.0213568276 0.0157885561
0.4314233907 -0.0613683395 0.0175243447
-0.3280755270 -0.0012416587 -0.0274173608
-0.3082045605 -0.0638642754 0.0274173608
-0.4589152977 0.0161373775 -0.0007843210
-0.2946454450 0.0239414872 -0.0274173608
0.3660699417 -0.0780333160 -0.0011278759
0.3222767126 0.0035396776 -0.0274173608
-0.3713740052 0.0788965551 0.0007529769
-0.2599734917 0.0189782495 0.0274173608
-0.3905386361 0.0635922989 -0.0274173608
-0.3342220387 -0.0004471287 -0.0274173608
0.2893552179 -0.0248024726 0.0271016457
0.3443389548 -0.0531487464 -0.0274173608
-0.1196640774 -0.0213568276 -0.0002581735
-0.3968570866 0.0575000841 -0.0274173608
0.0353559990 0.0192208663 -0.0188922288
0.1910622860 -0.0002378781 0.0274173608
-0.0901356653 0.0082334437 -0.0274173608
0.0451755457 0.0192208663 0.0159012484
0.4483968708 -0.0258129701 0.0274173608
0.1509588601 -0.0213568276 -0.0041043457
0.1490941465 -0.0213568276 0.0196293095
0.4639922878 0.0212103183 0.0078723760
-0.2935865836 -0.0478490902 -0.0224775987
-0.3406133104 0.0452160410 -0.0274173608
0.4519660668 0.0005794046 0.0274173608
0.1290650993 -0.0110093518 0.0274173608
-0.3306116273 0.0180058533 -0.0274173608
-0.4250484259 0.0334736249 0.0274173608
