0.0121653789 -0.0120918836 -0.3721121713
-0.2807770733 -0.0312500726 0.2870624488
0.0158677109 0.0134345553 0.4596713176
-0.3102652249 0.0163544734 0.2830625720
0.1743078236 0.0312500726 0.3815062765
0.2618588203 0.0149870365 0.2387468003
0.1760721608 0.0083074586 0.4143040537
0.2447634579 0.0312500726 -0.0969353677
0.0676550250 0.0312500726 -0.3623564449
0.2867860467 -0.0312500726 0.1199020062
-0.2823269015 0.0312500726 0.3356898990
-0.2801860025 0.0215025300 0.1662641218
-0.2653273231 0.0296872677 0.1523009898
-0.2673967229 -0.0037483601 0.1539263721
0.1044756024 -0.0289547967 -0.3405649284
0.2041848495 0.0312500726 0.3593074064
0.1244670543 -0.0312500726 0.4268410111
0.2394416634 0.0173741741 -0.1681882806
-0.0765095060 0.0282012634 -0.4198145080
0.0684808949 0.0009932592 -0.3303826916
-0.3125004353 0.0234811146 -0.4961354527
0.2705806370 0.0139821290 0.0129489375
0.1680689173 -0.0312500726 0.4155384077
-0.2866257206 0.0312500726 0.3251195745
-0.2111785343 0.0274030439 0.4509590103
0.2805582304 0.0040022960 0.0966640632
0.2472699787 0.0077645986 -0.1529886197
-0.1424118649 -0.0312500726 -0.4554673401
0.2777614407 -0.0124937179 0.0607873357
-0.2373940160 0.0221851367 0.4285695008
0.2795147622 -0.0312500726 0.0248605844
0.2994644893 0.0312500726 0.0766875843
0.2808128316 -0.0046912423 0.2758646812
-0.0491198306 0.0312500726 -0.4152033709
0.1386789078 -0.0273417709 0.4414518294
0.2487176500 0.0029772131 -0.1500506669
0.2584534685 -0.0312500726 -0.0922416807
0.2690580879 -0.0312500726 -0.0153251303
-0.0473238477 0.0238914397 -0.4062358057
0.2030142826 0.0312500726 0.3689478153
-0.2965441063 -0.0093479436 0.3378412156
-0.1158403642 0.0312500726 0.4627314644
-0.1257324468 0.0148643411 -0.4714319386
0.1892872244 -0.0060489149 -0.2475900466
-0.3120953987 -0.0284905202 0.2637979652
0.1843643796 0.0161165547 0.3642101480
0.1246762734 0.0312500726 0.4367499202
-0.1261581302 0.0063125685 0.4917412897
0.2095919473 -0.0021453647 -0.2185721856
-0.3060265605 -0.0274482803 0.3064885660
0.2809436896 -0.0092147640 0.1062008498
0.0503629966 -0.0312500726 -0.3558258180
0.1780049560 -0.0312500726 -0.2126728632
-0.0300915737 -0.0312500726 0.4811210945
-0.0631562152 -0.0064492266 -0.4480999849
-0.1574709957 0.0142980941 -0.4481442811
0.2496075406 0.0307125848 0.2689595265
-0.3076197393 -0.0196683970 -0.4999756152
-0.2271074836 -0.0060686861 0.1314707952
-0.1077067219 0.0291890098 0.4640253736
-0.2453587365 -0.0091663715 0.4204046199
0.1480904006 0.0066100452 0.3966779506
0.2995868340 -0.0080593642 -0.0013517596
0.1542225053 -0.0157000464 0.4310198950
-0.2293668399 0.0094456761 -0.4628998888
-0.0832956189 0.0004525941 0.4991073595
0.2189056462 -0.0013599671 -0.1398486995
0.0534112262 0.0312500726 -0.3596864706
0.2692698918 -0.0128917715 0.2149403095
0.2438812887 0.0059491879 -0.0822878865
0.2256952863 -0.0063750763 -0.1257471940
0.0173184785 -0.0104540625 -0.4058752886
0.1596720526 0.0312500726 -0.2469399138
0.3122945420 -0.0071582785 0.1095179120
0.2809442077 0.0042397129 0.1065334425
0.2810757294 0.0289044899 0.1110325268
0.0110110042 -0.0107808298 0.4607712653
0.2029652365 -0.0312500726 0.3815938018
0.2299656731 0.0312500726 -0.1533622563
0.1647347408 -0.0312500726 -0.2501711334
0.3122174091 -0.0224768998 0.1065633377
0.3114362302 0.0262902611 0.0886390409
0.2734673820 -0.0242821000 0.0292703572
-0.3123531970 -0.0062298027 0.2443767772
0.1171340734 -0.0142679229 -0.3289038629
0.2811998770 0.0142340828 0.1183769763
-0.2564446199 0.0068860075 0.3510883905
0.1548057880 -0.0166222597 -0.2412762865
0.2562577057 0.0205977585 -0.0454071596
-0.0770865661 0.0082837976 0.4682241803
0.1685032284 0.0193041358 -0.2231006389
0.2765908836 0.0312500726 0.1830115514
-0.1477031854 0.0312500726 -0.4463129458
0.0510104689 0.0312500726 0.4638362530
-0.2989091674 0.0312500726 0.2514941698
0.1458003893 -0.0312500726 -0.2875838647
-0.1769747687 0.0300399870 0.4722011579
-0.2051945576 0.0312500726 0.4450508857
0.2603936651 -0.0243758258 0.2428721832
-0.1875001449 -0.0030429571 0.1460530171
-0.1991546945 -0.0312500726 0.4466691085
-0.2196239579 0.0116758570 -0.4614297325
-0.2708912831 0.0238958067 0.3880778052
0.1134774784 0.0011769693 0.4561156675
0.1374447076 -0.0190627908 0.4045696820
0.0573390538 -0.0251397067 -0.3394837790
-0.2391318392 -0.0312500726 0.1395449030
-0.2641511987 -0.0051941942 0.1513102949
0.2767285840 0.0102603900 0.0519046581
0.1566928643 0.0312500726 -0.2402550764
0.2564531311 0.0312500726 0.3005060605
-0.3075244206 0.0145796694 0.2152914886
-0.2774061893 0.0182171700 -0.4989994827
0.2296109356 -0.0007301701 -0.1859856317
-0.2503471094 0.0064689569 0.4149271281
-0.1814451227 0.0244066413 -0.4860975735
0.0080445683 -0.0167228394 -0.3747829495
0.1062683442 0.0150559118 -0.3389468449
0.0480775303 -0.0278575374 0.4832959206
0.0608239490 0.0222706763 0.4791198365
-0.2329671724 -0.0312500726 0.1655998860
-0.1374937102 0.0312500726 0.4819016228
0.2803367731 -0.0238127943 0.0924156683
0.2774883299 -0.0139762484 0.0583258068
-0.1034847617 0.0281597883 -0.4307365927
0.2572763955 0.0312500726 0.2821076397
0.2664902310 -0.0312500726 -0.0137977931
-0.2302699333 -0.0312500726 -0.4702815106
0.1949064772 0.0312500726 0.3632666104
-0.2159584402 -0.0077548922 0.4058244036
0.0925021835 -0.0128394257 0.4317976174
-0.1918251660 -0.0041717126 0.1251308417
0.0536452075 -0.0238336870 -0.3424010927
0.3100197894 0.0223418108 0.0695049940
-0.2696552231 -0.0312500726 0.3266722753
-0.1592252938 -0.0123834615 -0.4486146802
-0.2005703323 -0.0151750004 -0.4580887478
-0.1823873035 -0.0312500726 -0.4851550207
0.2089894692 0.0312500726 -0.1969016624
-0.2969651751 -0.0312500726 0.2233922380
0.2033916649 -0.0163345670 0.3428140758
0.2738449568 -0.0039349694 0.1959351538
-0.1223553813 0.0312500726 0.4814557003
0.0874072868 -0.0312500726 -0.3307834684
0.2518682261 0.0101348772 0.2639974649
0.2525054222 -0.0312500726 0.2632690140
-0.3122176698 0.0227985595 0.2609735566
0.1611514343 -0.0252090082 -0.2827521687
0.2584381164 -0.0167178248 0.3189490033
0.2866131921 0.0312500726 0.2090402325
0.2698844385 0.0312500726 0.2881001449
0.0766083218 0.0030956275 -0.3234723101
0.0979068081 -0.0312500726 0.4468277544
-0.2838382725 0.0312500726 0.3120812523
-0.3030671440 -0.0012340852 -0.4686595311
0.2142047175 0.0312500726 -0.1727904091
-0.2903010321 0.0312500726 0.3436622210
0.2904881014 -0.0312500726 0.0283490775
-0.1889875075 -0.0059751492 0.1562925577
0.2780941182 0.0200073956 0.0641028340
0.0111959550 0.0312500726 0.4741662483
-0.1051925075 0.0312500726 -0.4318334731
-0.1285217411 0.0210790477 0.4911006849
0.0786343834 0.0312500726 0.4544601030
-0.1568360679 -0.0296148035 -0.4479581966
-0.2506701803 -0.0085879744 0.1422288751
0.0744718868 -0.0312500726 0.4606446260
-0.0416980100 0.0047791592 -0.4033897359
-0.2150629964 -0.0312500726 0.1568760740
-0.0618339079 0.0312500726 -0.4320314574
-0.0831175978 -0.0072262107 0.4991466587
0.2798232246 0.0312500726 0.2365403879
0.0420551926 0.0312500726 -0.3847706109
0.3053278484 0.0232376884 0.1978868545
-0.0051462507 0.0312500726 0.4881186024
-0.0031131862 -0.0276516501 0.4952559971
0.2922961797 -0.0066606931 -0.0325893726
0.2726320790 0.0101327288 0.2932320473
-0.0211604657 -0.0312500726 -0.4135653411
0.2921872365 0.0312500726 0.1654333588
-0.2783295118 0.0203310546 0.2271523635
-0.2847592257 0.0312500726 0.3446454421
-0.0475870707 0.0158681037 -0.4063640970
0.2161534713 -0.0097691865 -0.2083696746
-0.2785834216 -0.0249111192 -0.4677627767
0.0152949495 -0.0055658575 0.4598103670
-0.0618062909 -0.0312500726 0.4735207508
-0.1980947349 -0.0312500726 0.4302570232
-0.2812316968 -0.0150387136 0.2513226048
-0.3121638152 0.0216616068 0.2620495138
0.1885092210 0.0312500726 -0.1988375606
0.0213307186 0.0312500726 -0.4008349008
0.2878275515 -0.0031463393 -0.0488566101
-0.3096704825 0.0312500726 -0.4965820124
-0.0012183749 0.0272117502 -0.4169588988
0.2018109462 0.0182566520 -0.1716647392
0.1447415088 -0.0245635941 0.4375163656
0.1667431246 0.0086527682 0.4217646750
0.2630098191 -0.0160864104 0.2354641527
0.1608283942 -0.0171398027 -0.2334632057
-0.0455659264 0.0118566065 0.4995942045
-0.0720168046 -0.0312500726 0.4783950201
0.2609110463 0.0279502314 -0.0290346633
-0.0754255288 -0.0087422706 -0.4193530187
0.2804301483 -0.0312500726 0.1633079904
0.3014032523 -0.0206051669 0.2154209253
-0.0378623364 -0.0312500726 0.4924971078
0.0415076642 0.0312500726 0.4537369993
-0.2956876275 0.0312500726 0.2195740311
-0.2823293362 0.0080118094 0.3690210026
0.2789501699 0.0312500726 -0.0278900622
-0.3109828432 0.0312500726 -0.4809738583
-0.1875001449 -0.0047530921 0.1336175367
0.0422009685 -0.0312500726 -0.3667587630
0.2346336443 -0.0312500726 0.3527698000
-0.3025140042 -0.0312500726 0.2424791457
-0.1804372296 -0.0135828307 -0.4538686505
-0.2459297715 -0.0104292528 0.1395189205
0.2802837553 -0.0245801447 0.0914538458
-0.2060532644 0.0267896564 -0.4591182332
0.0165418056 -0.0023554883 -0.3692202327
-0.2786679835 0.0181811879 0.2831781726
0.2777251253 0.0064835608 0.0604358402
0.2141767774 -0.0312500726 0.3405990173
0.2790440019 0.0185265656 0.0739794370
-0.0960082314 -0.0230215677 0.4976934250
-0.2427337591 0.0312500726 0.1732417953
0.3012618701 0.0312500726 0.1111096076
0.2634024986 0.0266545872 0.2342362953
0.3080064966 -0.0008670245 0.1826868292
0.1079722941 0.0002731817 -0.3373845495
0.0546274058 -0.0137764292 0.4812303931
-0.3094403261 0.0312500726 0.2709391661
0.0597882462 0.0044172911 0.4462525943
0.2281769044 -0.0076459595 -0.1203526380
-0.2817339830 -0.0147992124 -0.4679397727
-0.1890837893 -0.0164137024 0.4283317082
0.1355102212 0.0076684286 0.4059754762
-0.1744724939 -0.0070981927 0.4734734465
0.0774731736 -0.0312500726 0.4675791423
-0.2790839723 0.0015300030 0.2806235583
0.0878359829 -0.0075464649 -0.3134740096
-0.1701852350 0.0312500726 0.4601466386
0.1795208143 -0.0312500726 -0.2600098730
-0.2806738608 -0.0189790085 0.3719370118
0.2741398716 0.0028116034 -0.0905458012
-0.2752150284 -0.0217636303 0.3008795225
-0.0840965155 -0.0150033620 0.4990371598
-0.1295834577 -0.0187485582 0.4907839811
-0.2560080593 0.0135514162 0.4081972442
0.2006718650 -0.0312500726 -0.1890659105
0.3064853361 0.0267683436 0.0386061975
-0.2350131960 0.0312500726 0.1640887320
-0.0171130590 -0.0312500726 0.4970384263
0.0193446594 -0.0165712143 0.4909352194
-0.0773660272 -0.0312500726 0.4696585368
0.2492214919 0.0301688426 -0.1489904332
-0.1661939376 -0.0126442674 0.4425865730
0.2181048460 -0.0152882352 -0.1414378798
-0.0137121497 -0.0312500726 -0.4051672949
-0.0516790969 -0.0306207814 -0.4083836790
0.3121841609 -0.0233669973 0.1055581074
-0.2912468242 0.0003395156 -0.4683630269
0.2071655412 0.0312500726 0.3732869552
-0.2811448068 0.0042574183 0.2465730556
0.3089670941 -0.0227598072 0.1762709768
-0.2578488578 0.0218960978 0.1882285254
-0.3029709955 -0.0002270052 0.3182653453
-0.2163255756 -0.0312500726 0.4315231222
-0.3035122093 -0.0083852591 0.3162956106
0.0519903111 -0.0312500726 0.4758749857
-0.2710079193 -0.0133301833 0.3160455940
-0.2777551492 0.0312500726 -0.4811251242
-0.2672604058 0.0080393945 0.1538332440
-0.2606538120 -0.0157770119 0.1486961956
0.1970633967 -0.0312500726 -0.2359118193
0.3113862375 -0.0108677120 0.0878446531
0.1482209046 0.0005504450 -0.2495125807
0.2520159599 0.0192535155 0.3291721005
0.0741900128 0.0253098068 -0.3255507803
0.0182109852 -0.0177210424 0.4591096742
-0.2034406291 -0.0071365066 0.1577155894
-0.1713438426 0.0130343377 0.4750119051
0.1111322723 0.0216155604 -0.2909883089
0.2496250503 0.0312500726 0.2736059760
-0.2036729522 0.0214887097 0.1576701359
0.0994324151 0.0025455914 -0.3450150021
-0.2342902218 -0.0312500726 0.4060844786
-0.2346945118 -0.0312500726 -0.4690695548
0.0162474958 -0.0151414410 -0.3694300385
-0.2889966103 -0.0312500726 0.2835318070
-0.2084368233 0.0305919173 -0.4595472103
-0.0149018149 -0.0312500726 0.4779979585
-0.0947677826 0.0312500726 0.4922907608
0.2855284572 -0.0312500726 0.0125318009
0.0548294387 -0.0090474688 -0.3806501343
0.0516167878 0.0178888353 0.4492236170
-0.3063135262 0.0162366241 0.2112457210
0.0597493855 0.0269696882 -0.3375550619
0.1524134192 0.0300374528 0.3932486545
-0.0034493397 0.0312500726 -0.4022754323
0.3004748621 -0.0092004275 0.2191248524
-0.2699843017 0.0312500726 -0.4697093345
0.3124014398 -0.0146048976 0.1330894264
-0.2781991922 -0.0188083730 0.2863274547
0.2665204050 -0.0294509334 -0.0063634599
0.1826780409 0.0172018693 -0.2563149536
0.1558633095 -0.0275474280 0.4298458065
0.0552607469 -0.0069173954 -0.3803371733
-0.0932506608 0.0296978286 0.4980532366
0.3117983747 0.0176885737 0.0955927437
-0.3098288203 -0.0193394325 0.2244936063
0.0698907277 -0.0122106025 -0.3693593822
-0.1097538540 -0.0312500726 -0.4403942984
-0.2201696162 0.0312500726 0.4355720575
0.1519644757 0.0181114217 0.4326049064
0.0742295150 0.0312500726 -0.3554338073
0.1676193826 0.0281239066 -0.2751283015
-0.2821347118 -0.0312500726 0.3413463622
-0.1438020251 -0.0312500726 -0.4601939946
-0.1224083220 0.0312500726 0.4624899036
0.2584896530 -0.0012030292 -0.0377647201
0.1308984282 0.0090620850 -0.2698685556
-0.2567919531 0.0312500726 0.3855390513
0.1932101580 0.0171896455 -0.1860943704
0.1601207320 0.0112765923 -0.2343876996
0.0888856953 -0.0250396555 0.4680735523
0.1024964608 -0.0312500726 0.4462039344
-0.0760886472 -0.0151980892 0.4996009599
0.2312955156 0.0017989476 0.3034141080
0.1151635361 0.0041190614 0.4192702967
-0.2379560311 -0.0008818815 0.4280485307
-0.2829530763 0.0312500726 0.2533421305
0.1948878891 -0.0083957758 0.3528364405
-0.0429332746 -0.0009440256 0.4994619222
0.1432756695 0.0178515864 -0.2554969830
-0.3045280258 0.0312500726 0.2829173044
-0.0442385420 -0.0312500726 0.4768777473
0.2593842625 -0.0312500726 0.3131589104
0.2391208694 0.0185748422 -0.1687884273
0.3073147547 0.0167888424 0.1870617370
0.0514241727 0.0150441021 0.4822639209
-0.1737390365 -0.0079923641 0.4383029653
-0.1875001449 0.0206006956 0.1264294254
0.2723659690 -0.0312500726 -0.0779366966
-0.2988242854 0.0058248361 0.1932233969
-0.0357376318 -0.0230146738 0.4677020246
0.1679507640 -0.0258910871 -0.2238376107
-0.0307361765 0.0169543777 -0.4328624300
-0.1143520709 -0.0026062568 -0.4677394073
0.2533758457 0.0045150557 -0.0547640916
-0.2349312460 0.0070058513 0.1692469047
0.0074408696 -0.0013397180 -0.3751588581
0.2720389793 -0.0050480853 -0.0961953723
0.2290178595 -0.0312500726 -0.1333975373
-0.2747125933 0.0167842941 -0.4988504791
-0.0127448472 -0.0312500726 0.4878293749
0.0892286982 0.0189459847 -0.3121942003
-0.1316263151 0.0082336743 -0.4732422305
0.2052394679 0.0312500726 -0.1880299251
0.2281499007 0.0312500726 -0.1655099965
-0.1200753632 0.0191080680 0.4931989966
-0.0506415623 -0.0312500726 0.4807392272
-0.1842867188 -0.0076051010 -0.4547326120
0.2001192806 0.0246639278 -0.2325354197
0.1948772818 0.0312500726 -0.2239265574
-0.0445087656 -0.0069481269 0.4682572790
-0.2996642199 -0.0312500726 0.2499743591
0.2448450823 0.0278080618 0.2788883210
0.2377250996 0.0192623576 0.2923267874
0.1872075819 -0.0312500726 -0.2000152018
0.0032375890 -0.0130792882 -0.4143773082
-0.2982876100 -0.0312500726 0.2072072478
0.1530555784 -0.0312500726 0.4040293332
-0.2659967140 0.0242780557 0.3301508740
0.3104296319 0.0312500726 0.1378488352
0.0416854146 -0.0099462386 0.4525808311
-0.2935993204 -0.0312500726 0.2560609700
0.0360061540 -0.0312500726 -0.3813904490
0.1428002952 -0.0312500726 -0.2829044549
0.2438296140 0.0108666450 -0.0824315390
-0.1442958646 0.0054024471 -0.4444130516
-0.2940026492 -0.0312500726 0.2207107207
-0.1302934216 -0.0193676427 0.4905792688
0.2181541976 -0.0096238502 -0.1413325696
-0.2418594913 -0.0234967706 0.1374754872
-0.0118340654 -0.0259678982 0.4965408092
-0.1581548667 0.0217974575 -0.4806351212
-0.3088640628 0.0128646453 0.2201939156
-0.0209486356 0.0312500726 0.4933341814
-0.2783420899 0.0172435029 0.3760967593
0.2916114751 -0.0288908064 0.2483162654
-0.0612635576 0.0312500726 0.4864123982
0.2083678624 -0.0256895008 -0.1599994835
-0.3124667738 -0.0101584149 0.2488792264
-0.1501318678 0.0016621247 -0.4461076178
-0.2957201891 -0.0073433410 -0.4997604163
0.0513985042 0.0312500726 0.4505895527
0.2164580259 0.0262216635 0.3258339057
0.0999390989 -0.0249302219 -0.3021070342
0.0957429895 -0.0312500726 -0.3335054663
0.2745064079 -0.0118980121 0.0357786062
-0.2146468925 -0.0312500726 0.4163811386
0.2394821310 0.0312500726 -0.1156114719
0.1511368389 -0.0132845146 -0.2459034498
-0.3086733903 0.0137209144 0.2935097647
0.2547021629 -0.0312500726 0.2831951355
0.2796406444 0.0108637092 0.1580315266
-0.2230119364 -0.0167312763 -0.4619572873
0.0291869288 0.0152650757 -0.3983152891
0.1973211156 -0.0103135092 0.3500516125
-0.2009333132 0.0202300676 0.1573023181
0.2504268972 -0.0303660068 -0.1465449259
-0.2474474545 -0.0052200336 0.3667853351
0.1719099509 0.0022311554 -0.2699047348
-0.2184900842 -0.0293354211 0.4453026462
0.3075726873 -0.0167574106 0.0467519494
-0.2078062976 -0.0312500726 0.4341841156
0.1557666017 -0.0158871563 0.4299076255
-0.0219694634 -0.0153833168 0.4663426174
-0.0025565405 -0.0161176347 0.4951582638
-0.2014843062 -0.0298147693 0.4577634807
0.2898803404 -0.0227394455 0.2531816325
0.1538228539 0.0097815936 0.4313009752
0.2070139896 0.0186645945 0.3857401299
-0.0354950444 0.0312500726 0.4749503954
0.1200598354 -0.0098947711 -0.2817213045
0.2928365169 0.0312500726 0.1470118853
-0.2600618468 -0.0081521318 -0.4664234315
-0.2088963137 0.0312500726 -0.4900465791
0.0462689644 -0.0095420782 -0.3867587840
0.2475372425 -0.0061684691 -0.1524454247
0.1157918941 -0.0057761878 0.4188890776
-0.2550609498 -0.0312500726 0.1765614048
0.1068221019 0.0312500726 -0.3335785359
0.3001590912 -0.0312500726 0.1179309264
-0.1757942318 0.0144891976 0.4370929869
-0.3050328243 0.0241751872 -0.4686965338
-0.0392762627 -0.0194964528 0.4992569949
0.1736642971 0.0312500726 0.4098276428
0.0674743546 -0.0045804973 -0.3312374870
0.0322689482 -0.0312500726 -0.3752120686
-0.2442750982 0.0312500726 0.1418515817
-0.1739593674 -0.0028794286 0.4737592824
-0.2943540015 -0.0270057608 0.1852023636
0.2985872618 0.0312500726 0.0315316278
0.2666048185 -0.0019177796 -0.0060479385
0.3071292537 0.0019140403 0.0433071785
0.2789849038 -0.0312500726 0.0554831508
0.2857822141 -0.0312500726 0.1497133914
0.2448216612 0.0312500726 -0.1001416587
-0.2546574830 0.0138015027 -0.4973084846
0.2843309348 0.0304933954 0.2674886697
0.0385292990 0.0159301653 0.4861186523
0.1635404111 -0.0312500726 -0.2716146654
-0.0460615749 0.0071005537 -0.4056084344
0.2848119629 0.0312500726 -0.0385796539
-0.3046089950 -0.0312500726 0.2531237480
0.0169440789 -0.0215271901 -0.4061096347
-0.1992806930 0.0312500726 0.4404489979
0.2335744836 0.0312500726 -0.1513169402
-0.1874452240 -0.0312500726 0.4390540795
0.1641429681 -0.0211211065 -0.2290099604
0.3005453751 -0.0312500726 0.1043885563
0.2754589047 0.0247736229 0.0423869197
0.2065160644 0.0312500726 -0.1845675757
-0.3048018370 -0.0312500726 0.2501588370
-0.0235533493 -0.0265324584 -0.4291835258
-0.0121031268 0.0312500726 0.4829250551
0.1147711949 0.0238778312 0.4194845194
0.2238938270 -0.0086787470 -0.1295767925
0.1866078667 0.0312500726 -0.2200065322
-0.0064201167 -0.0234105819 0.4641397967
0.3058196469 0.0172069296 0.0339784990
-0.1002864328 0.0312500726 0.4918813567
0.2130376454 0.0182712269 -0.2132724231
0.2810353168 -0.0307749425 0.1098571393
-0.0807605972 0.0312500726 0.4923992764
-0.2754114435 -0.0185627132 0.2174347800
-0.0096258690 0.0243384526 -0.4216929490
-0.2894856162 0.0312500726 0.2746405431
0.3004446365 -0.0244414522 0.2192235267
0.2857348645 -0.0086103205 0.2640796004
0.1944560633 -0.0120550823 -0.2405218732
-0.2970826812 -0.0312500726 0.2597627453
0.3059739791 0.0204242609 0.0350376010
0.2517583559 0.0308840381 0.2642288124
0.1981324561 -0.0133354980 0.3491069396
-0.2842185971 0.0312500726 -0.4916851669
-0.2869748805 -0.0012263293 0.3599374416
0.0154610644 -0.0223498578 -0.4070313262
-0.1485767371 -0.0095046965 0.4510664309
-0.2069080878 -0.0114246411 -0.4592827064
0.1233561337 -0.0235025250 -0.3229322799
-0.0030644732 -0.0312500726 -0.4022330270
-0.1711650792 -0.0133788445 -0.4516716488
0.2172089316 0.0262422914 0.3747590853
-0.0291791501 -0.0312500726 -0.4317029453
0.3124518752 -0.0155824170 0.1179151176
-0.2810044211 0.0296497720 0.2598509444
0.1646768792 -0.0009778410 -0.2786067877
0.0669079371 0.0073637254 0.4769519778
0.2597908466 -0.0134207890 -0.1261859276
0.2074078555 -0.0190508738 -0.2218703217
-0.2793280280 0.0312500726 0.1678060492
-0.2118439975 0.0105218638 0.1275170848
0.2832066407 0.0312500726 0.2443150222
0.2908945552 -0.0307780988 -0.0378802111
-0.1875001449 -0.0162607749 0.1338365104
0.2588629004 -0.0184974248 0.2469772809
-0.3066002454 -0.0186000826 0.2120644651
0.1096087834 -0.0312500726 0.4447922539
-0.2111856021 -0.0125099904 0.4103823914
0.1770024163 0.0080752240 0.4135462280
-0.2376135700 0.0280415312 0.1355971776
0.1666276551 0.0312500726 -0.2499601417
0.0706776772 -0.0149392699 -0.3687502414
0.1396240651 0.0214965919 0.4030346011
0.0742386772 -0.0192414145 -0.3659564846
0.2748786351 -0.0155826499 0.0383067811
0.3124700910 -0.0293841612 0.1211518423
-0.2626589479 0.0179847221 0.1941284017
0.1735677305 0.0125672563 -0.2678749757
-0.0435235226 0.0248504934 -0.4043173680
-0.0141593347 0.0312500726 -0.4124839970
0.1579592829 0.0312500726 0.4121223314
-0.0703297853 0.0281447237 0.4998418262
0.0016134677 -0.0050569428 0.4944696019
-0.2301032882 0.0312500726 0.1654121003
0.2963783202 -0.0312500726 -0.0043504567
0.2848306335 -0.0312500726 0.0912811576
-0.0822007910 -0.0312500726 -0.4230996311
-0.2250179057 -0.0312500726 -0.4718489780
0.2765552462 0.0312500726 -0.0030661102
0.0351273413 0.0312500726 -0.3907083989
-0.0611446655 0.0152651766 -0.4472126135
0.2310287397 0.0262508726 -0.1139647707
0.1573262481 0.0146026568 0.4287822630
-0.1045338381 0.0312500726 -0.4584041513
-0.2376107788 0.0108477539 0.1354912471
0.3056945368 -0.0312500726 0.1041775756
-0.1952812617 0.0312500726 -0.4593713518
0.2809024610 0.0007081077 0.1052477342
-0.1671997249 -0.0073284999 0.4420570328
0.0616290501 0.0060854559 -0.3360327337
-0.1043653444 -0.0312500726 0.4743663783
0.2403174768 0.0312500726 0.3037970234
-0.1038709317 0.0281060455 -0.4308810171
-0.0940200791 -0.0152011085 -0.4605555370
-0.0016543681 -0.0078870464 0.4633155427
0.1791776656 0.0217015200 0.3694027608
-0.3099900550 -0.0300876666 0.2852661829
0.2615632709 -0.0077295437 -0.0266016588
-0.3029171147 0.0312500726 0.3063963143
-0.1580736454 0.0174948311 0.4810021173
-0.0034185556 -0.0211602388 -0.3819531729
0.2479028281 -0.0312500726 0.3051691002
0.3054888431 -0.0190017975 0.0318182190
-0.1722263061 -0.0148060792 0.4745712787
-0.0332531041 -0.0034078705 -0.4341428909
0.2896127960 0.0312500726 -0.0232044984
0.1261042832 -0.0273892817 -0.2751927833
-0.2612201384 -0.0312500726 0.1601163640
-0.0570823495 0.0089333864 -0.4454119651
-0.1938969828 -0.0057296246 0.1565213441
-0.2726213486 -0.0312500726 -0.4923561561
-0.2638501392 0.0241980030 0.3354501108
0.1981586600 -0.0312500726 -0.1906733675
-0.2050277356 0.0168808885 0.4159256403
0.2128535816 0.0312500726 -0.2018068774
0.1154024852 -0.0055420582 -0.2866105293
0.1375923320 0.0068720171 -0.2622291886
0.2301594004 0.0312500726 -0.1498829702
0.2755313910 0.0284666662 0.0428376278
-0.0561893876 -0.0276261483 -0.4105566711
-0.0837081814 -0.0312500726 0.4720071004
0.3075185945 0.0227360750 0.0463332985
-0.2267271305 0.0312500726 0.4276573383
-0.0565786244 0.0312500726 0.4719874139
-0.2947184705 -0.0038229321 0.1857949887
0.1909340931 0.0034021243 -0.2453547420
-0.1876646694 -0.0247103414 0.4293728179
0.1548090186 -0.0100647982 -0.2900145996
0.2694583147 0.0312500726 0.2227552336
0.1383419502 0.0076528766 0.4416696446
0.1279053516 -0.0303516200 0.4480616974
0.2752388792 0.0265324956 0.1888555696
-0.2796303780 0.0312500726 0.3019989997
0.0767603666 0.0196450885 0.4731375970
0.2417774975 0.0312500726 -0.0941421006
-0.2502975010 -0.0061262409 0.4149810474
0.2782084913 -0.0207027974 0.0652377572
-0.1944690142 -0.0260640640 0.1565845253
0.0832614081 0.0312500726 -0.3237650092
0.0192076316 -0.0306150048 -0.4047043758
-0.1151699935 -0.0312500726 0.4713221491
0.2256973593 -0.0312500726 -0.1758754136
0.2630163979 -0.0312500726 0.2677011653
0.2009455501 0.0312500726 0.3894026690
-0.3060955528 0.0195759008 0.3061017633
-0.0493902417 0.0268749359 0.4684901803
0.2132981739 0.0312500726 -0.1612523151
0.0627921286 -0.0000871225 0.4450672861
0.2769661931 0.0312500726 -0.0662051988
0.2287948201 -0.0103660988 -0.1189740790
-0.0598399507 0.0044165001 -0.4122957040
0.3089824902 -0.0228129356 0.0588581114
0.1616277550 -0.0299666951 -0.2822156327
0.3085640616 -0.0312500726 0.1407024458
-0.1230805296 -0.0312500726 -0.4411896487
0.1493983172 -0.0312500726 0.4104399290
0.2690006490 -0.0312500726 -0.0140750281
-0.0439688130 0.0285093697 0.4995111056
-0.3009485114 -0.0181629132 0.3250917307
0.1599253528 0.0312500726 -0.2667471645
-0.1141331790 0.0064825132 -0.4676770672
0.2344465076 0.0216056308 0.3539595609
-0.0991910371 0.0292122021 0.4972643234
0.2485198188 0.0312500726 -0.1457239279
-0.2200295856 0.0312500726 0.4192566217
-0.2594321498 -0.0029524424 0.4039488196
0.1308996839 0.0312500726 -0.2930387998
-0.1476363148 0.0202270065 0.4514813574
-0.0933297616 -0.0132484856 0.4980709328
-0.1863285476 0.0312500726 0.4386251256
0.3008232539 0.0312500726 0.0629951095
0.0767727252 0.0017537685 -0.3233224889
0.2113985499 0.0295706577 0.3327015716
-0.2981363775 -0.0105115505 0.3333948030
0.1476001340 -0.0170138102 -0.2979841908
0.0892888408 0.0064965998 -0.3537308907
0.2791006710 -0.0122675062 0.0746784367
0.1419807460 -0.0209217058 -0.2570464045
-0.3002211389 -0.0268001123 0.3273378284
0.2374760789 0.0061520753 -0.1718969083
0.2695223207 0.0312500726 -0.0933374416
0.2098728212 -0.0153153829 0.3346855878
0.2683536848 0.0312500726 0.2739192910
-0.2128921874 0.0064986423 0.4088096704
-0.0587362493 -0.0244234409 -0.4117752068
-0.1901189325 -0.0229847195 0.1563373224
0.1480394571 -0.0088931893 0.4353108950
0.2699973674 0.0181513741 0.0100549092
0.0663947214 0.0009922784 -0.3720548660
0.2325990648 -0.0137201931 0.3012763449
-0.1934664796 0.0312500726 0.1534674018
0.2811381272 0.0145327615 0.1137589234
-0.1977570188 0.0184353237 0.1569015887
0.2584965250 0.0294977029 0.2478926168
-0.1846369356 -0.0066991989 0.4314455850
0.1776588514 -0.0082211250 0.4130046034
-0.0539128199 0.0006491476 0.4686106482
0.2627994462 0.0295552019 0.3114864814
0.2895036780 -0.0312169305 0.2542187934
0.1625410812 -0.0170734425 0.3848061694
-0.2787098274 0.0312500726 0.1872642028
0.1827700119 -0.0157188481 0.3658233551
0.0221658684 -0.0069232103 0.4903074517
-0.1998441454 0.0205209906 0.1571771939
0.1539882425 0.0312500726 -0.2608608595
0.1844098780 0.0091095529 0.4072432980
-0.2332816828 0.0312500726 -0.4670725036
-0.3007592090 0.0277330277 0.1972664352
-0.2194236269 -0.0234034199 0.1619874496
-0.2669566025 -0.0255499480 -0.4983322368
-0.2327558183 -0.0312500726 -0.4883545282
-0.2458029325 0.0036093067 -0.4649876696
0.2799944286 -0.0252739840 0.0865371501
-0.2991239403 -0.0312500726 0.2741921494
-0.1303548365 -0.0312500726 0.4769003078
0.2989577133 -0.0312500726 0.1631799490
0.2152515795 -0.0306937234 0.3274519381
-0.3082902160 0.0043914123 0.2955733938
-0.2704958661 0.0220753912 0.2066377591
-0.2423177702 -0.0014264459 -0.4960283379
0.2911161632 -0.0312500726 0.1492687917
0.2803105205 -0.0312500726 0.2471622415
0.3087889691 0.0312500726 0.0719888251
-0.1188810219 -0.0088820925 -0.4362828520
-0.1026400009 -0.0312500726 0.4811207491
0.1442921475 -0.0312500726 -0.2878899183
-0.0684886705 -0.0002836871 -0.4503731410
0.1295680048 0.0178208384 0.4100685928
0.0066012237 -0.0312500726 -0.3776894663
0.2478158878 -0.0176919130 -0.0713589042
0.3083272349 -0.0200869558 0.1806067239
-0.2662932489 0.0063342594 0.1992747270
0.2552402271 -0.0066753392 0.2561111437
0.1859796228 0.0134749019 -0.2520105969
-0.0299525216 0.0239761506 0.4671760152
-0.2605752455 0.0007059147 0.4024801716
0.1420758210 -0.0102140441 0.4012233728
-0.2790003362 -0.0306242552 0.3749051411
0.2081746177 -0.0312500726 -0.1998167626
-0.1796991582 0.0312500726 0.4670825029
-0.0385074870 0.0312500726 -0.4218766514
0.1651873055 -0.0264086872 0.4229523902
-0.2363411602 0.0070862824 0.1700750512
-0.1107069502 0.0311904969 0.4633177290
-0.2877286735 -0.0006521975 0.3583602518
0.2788069790 0.0309834544 0.0714998407
0.3124986133 -0.0279697235 0.1245271434
0.2805221836 0.0138220395 0.0957614871
0.0892535142 0.0312500726 -0.3285346172
0.3030595020 0.0312500726 0.0652596694
-0.2164086042 -0.0156472724 0.1608917903
-0.2871658674 -0.0127028749 0.1746782790
-0.2489665886 0.0312500726 -0.4784430075
0.1469343644 0.0040118475 -0.2510875886
-0.2159706969 -0.0312500726 -0.4640549969
0.0091422428 0.0075434438 0.4611917426
-0.2726631645 0.0158073258 0.3106155875
0.0800218125 -0.0146480005 -0.3204899942
-0.0421712913 -0.0143953787 0.4681348675
-0.1284421390 0.0312500726 0.4682904889
0.2835203210 0.0002362672 0.2694466078
-0.1756059768 0.0112501598 0.4372018385
-0.2971490724 -0.0194544952 0.3362486363
0.2553868070 -0.0100022179 0.3239228483
-0.1828132944 0.0119692824 -0.4544030538
-0.2191881866 -0.0144135662 -0.4929848468
0.0081401194 0.0080986756 0.4614071513
-0.1875001449 0.0250911606 0.1553380418
-0.2904945738 -0.0191374995 -0.4995928790
0.2791703349 -0.0282959440 0.0754738282
0.2797006663 0.0153812796 0.1572463071
-0.1963945943 -0.0067328707 -0.4891085933
0.2780951121 -0.0211848849 -0.0794429662
-0.0238567045 -0.0312500726 -0.4069205246
-0.2919911962 0.0312500726 0.2384352891
-0.2167547370 0.0312500726 0.4263680582
-0.1217989273 -0.0312500726 0.4865064257
0.2301495163 -0.0312500726 0.3337219598
0.2779364556 0.0303027884 0.0625640054
0.0271031144 0.0301729680 0.4568323967
0.2658806942 0.0173751132 -0.0092087996
0.0327746224 0.0312500726 -0.3763246397
-0.2535788621 0.0208644780 0.3564174142
-0.1823905775 -0.0312500726 0.4652916101
0.1910340252 0.0035278303 -0.1896224024
0.0123017468 -0.0225070060 -0.4089583809
0.1835577768 0.0076332796 -0.2012675183
0.2644177354 0.0164009027 -0.0152984529
-0.1871235505 -0.0071657395 0.4297686653
-0.1117572219 -0.0041595172 0.4950864758
-0.0922832294 0.0118936228 -0.4263914207
0.3100711644 0.0034745681 0.0701042286
0.2977158280 -0.0312500726 0.2126250604
0.1731476899 0.0312500726 0.4053645971
0.2506965725 0.0312500726 0.3091309043
-0.2549335990 0.0312500726 -0.4682503876
-0.0485079098 0.0206310301 -0.4068091732
-0.2626422739 -0.0009159603 0.3381471464
0.3064980569 -0.0312500726 0.0826553256
-0.1241614877 0.0305795612 0.4922162414
0.2442297628 0.0295432915 0.2801094466
0.2804844393 0.0199418591 0.1473014857
0.3053220703 0.0241723134 0.1979370903
0.0515708932 -0.0138046468 0.4492594870
-0.3117762696 -0.0284204258 0.2684022067
-0.1699155032 0.0101491870 0.4404945277
0.2797612287 0.0219656430 0.0830857279
-0.1845816495 -0.0139733545 0.4314608348
0.0862738608 -0.0099224234 -0.3562455487
-0.1646877928 0.0312500726 -0.4678644678
0.2769064141 0.0231945151 0.0534663381
-0.1416020791 -0.0143201308 0.4871017074
0.2811471191 0.0260715124 0.1325923213
-0.1875001449 0.0305868668 0.1384610906
0.2886091984 0.0243562308 -0.0461091293
-0.1386700551 0.0312500726 -0.4473156535
0.2885895099 0.0116147892 -0.0461899165
-0.1657527425 0.0072969342 -0.4503154882
-0.2586999142 0.0005170317 0.1892022638
0.1288896003 -0.0037266023 0.4105112395
0.1109764831 -0.0074081132 -0.2911672804
0.2482782223 -0.0312500726 0.3063904355
-0.3012939101 -0.0312500726 0.3135123295
0.2711027977 -0.0312500726 0.2815297482
-0.2804359466 0.0255944086 -0.4991626207
0.1271136289 0.0312500726 -0.3007086522
-0.2177062059 0.0312500726 0.4127679267
-0.2549014185 -0.0158656623 0.1447750885
-0.0331120450 -0.0208654445 0.4988346286
0.1738031629 0.0027720244 -0.2156203235
0.2810437146 0.0278587574 0.1365614028
-0.2264802694 0.0222919571 0.1647987832
0.2791951219 -0.0312500726 0.2207303137
0.0482143217 -0.0312500726 0.4595384683
0.0204717389 0.0312500726 -0.4019001578
-0.2602796274 -0.0120390349 0.3433712360
0.0919752836 0.0312500726 0.4448545468
0.2289311826 0.0236289984 0.3072695794
-0.2269058627 0.0154418883 -0.4941024016
-0.0580118743 0.0163212280 0.4687046480
-0.2047185232 -0.0312500726 -0.4627777266
-0.0645710940 -0.0312500726 -0.4423118463
0.1956162170 0.0230312859 -0.2389045876
0.0935984255 0.0312500726 -0.3303990923
0.2208726219 0.0147704321 -0.2007787062
0.1113689108 -0.0312500726 0.4545757349
0.1632976132 -0.0069244020 0.3841767840
-0.2965081996 -0.0116363204 0.3379174243
-0.2992051476 -0.0288689632 0.3303897090
0.2811859944 -0.0111119086 0.1296546374
-0.2810048170 0.0002060569 0.2596612060
0.2564343699 0.0030816601 -0.0447918889
-0.0544521125 -0.0053674553 -0.4097298952
0.1445081187 -0.0106026096 -0.3013242578
-0.3116855274 0.0037216791 0.2699173060
0.2767633716 0.0174656042 0.0522875370
0.1206414029 -0.0007412073 0.4521893734
0.2328894720 0.0218822826 0.3559669915
-0.2443842881 -0.0108567691 0.3714253945
-0.2515039015 0.0260648062 0.1815655911
-0.2585746071 0.0308820002 -0.4976443815
-0.2654370393 -0.0162116281 0.3315797326
0.2560114792 0.0297557468 -0.0462032477
-0.2396338742 -0.0310357564 0.1365212430
0.2354241155 0.0231491220 0.3527100527
0.2991647784 0.0312500726 0.2114877993
0.2372095151 -0.0312500726 0.3443551274
0.1038579872 -0.0061982353 -0.3411146425
-0.2795677125 -0.0093809994 0.2765829979
0.1552421072 0.0087828679 0.4302825266
-0.2964274159 0.0186620830 0.1887047630
0.1123453591 -0.0122729360 -0.2897715454
0.2818188500 -0.0312500726 -0.0122511219
-0.2252211670 -0.0180750053 -0.4938694874
-0.0691119613 -0.0312500726 0.4852360596
-0.0991015333 -0.0312500726 -0.4557408271
-0.3066170434 0.0001848602 0.3037211643
0.2382590066 -0.0312500726 0.3288071312
0.0815836491 0.0292604154 -0.3600725283
0.1897010256 0.0041140417 0.4025026417
0.0673599160 0.0058262634 0.4767820478
0.2165710862 0.0312500726 0.3339621444
0.2727944953 -0.0312500726 0.2556672726
-0.0239675422 0.0281647479 0.4665542224
0.2826108692 -0.0312500726 -0.0098242184
0.2315195583 -0.0312500726 -0.1727907576
-0.0541339600 0.0168148035 0.4686435948
-0.1976842203 -0.0290775960 0.4602464991
-0.0599771372 -0.0025902115 0.4687260872
0.2743089263 0.0058618634 0.1936567262
-0.2262934243 0.0312500726 -0.4691105325
-0.1875001449 -0.0309892868 0.1539029710
-0.0170507942 -0.0312500726 -0.4194089454
-0.2475982351 -0.0002945805 0.4180283138
-0.0761093313 0.0116470197 0.4995863511
-0.0114244524 -0.0138215877 0.4649252043
-0.2206791147 -0.0312500726 0.1564336148
-0.3072942938 0.0191180629 0.3005909644
-0.2108193668 0.0130722395 0.4107120798
-0.2935006654 -0.0312500726 0.2338720409
-0.2481827495 -0.0312500726 -0.4736636699
0.3105216535 0.0002191759 0.1634042796
0.2891994130 -0.0312500726 0.1151928298
0.2594857645 0.0312500726 -0.0415288507
0.1768821770 -0.0312500726 -0.2332892440
0.1402882935 -0.0056940676 0.4025370562
0.2752980091 -0.0014359646 0.0411666705
0.1151434561 -0.0211613486 0.4552297920
-0.1650802235 0.0305400629 -0.4501312202
-0.2806205397 -0.0312500726 0.1726927452
-0.3125004353 -0.0298492980 -0.4907871883
0.2811774355 -0.0173917475 -0.0703137616
-0.0007946911 -0.0101531003 -0.4167100567
0.1254807256 0.0160581489 0.4494718107
0.3092353271 0.0269911089 0.0613569056
0.2367522249 0.0147539868 0.3509859095
0.0350375459 0.0177137669 -0.3944608477
-0.2127441962 0.0312500726 0.4203268100
-0.0705667434 -0.0101712014 0.4998618694
-0.2504136915 -0.0312500726 0.3718295037
0.0516564254 -0.0312500726 0.4687604291
0.0231964438 0.0312500726 -0.3957478861
-0.1040797653 -0.0312500726 0.4876906962
-0.2935107089 0.0132538189 -0.4684443311
0.2697137958 -0.0263640943 0.2132106105
-0.0693432285 -0.0163231327 -0.4166619021
0.3026350033 -0.0290942455 0.2103209799
0.1025932304 0.0199167271 0.4264806455
-0.1155695340 -0.0312500726 -0.4524101104
-0.2364052285 0.0282164038 -0.4953309661
-0.2366165334 -0.0312500726 0.1671932656
0.2349950539 0.0304300678 -0.1047531412
-0.1911125464 -0.0126125723 0.4268574219
-0.2637211231 0.0133185443 0.3357438729
0.1636622541 -0.0163220928 -0.2296740655
0.1012486872 0.0312500726 0.4463517494
-0.1965398825 0.0031331846 0.4609945336
0.2077982339 -0.0196028549 -0.2212741411
-0.2179669124 -0.0120348132 0.1288044428
0.2633819283 -0.0200267713 0.2343851497
-0.2630425710 0.0312500726 0.1740073759
0.1757487604 0.0041540445 0.4145824450
-0.1305392617 0.0093643222 -0.4401669331
-0.1714417848 0.0071677290 0.4396336225
-0.2362930165 -0.0295603080 0.3827420566
-0.2295135000 0.0312500726 0.4293248104
0.1972585040 -0.0298865219 0.3954149331
-0.2018988739 -0.0015750707 0.1574928603
0.0449099899 -0.0312500726 0.4546713907
0.0698127085 -0.0200401252 -0.3694048792
0.1442549619 -0.0312500726 -0.2871027428
0.2056076690 0.0312500726 -0.1789735575
0.2515609861 -0.0312500726 -0.0896363298
0.1397551769 0.0277168545 -0.3063626902
-0.1998457305 -0.0312500726 -0.4691185103
0.2315631406 -0.0164758848 0.3029536505
0.3124870253 -0.0037376602 0.1269533122
0.2382248228 -0.0312500726 -0.1165389869
0.2308875799 -0.0217510409 0.3040558346
0.2773892320 0.0174590863 0.1762605702
0.1688287452 -0.0223386098 0.4201130534
0.3082466878 -0.0203955017 0.0523669167
0.1495853501 0.0273629092 0.3954840614
-0.0249311011 -0.0283777886 -0.3944393129
-0.3029132105 -0.0312500726 0.2883310983
0.1620866437 0.0286372129 -0.2317649228
0.2737683522 -0.0075794458 0.0310831722
0.2287474061 0.0029756981 -0.1875135404
-0.2407603752 -0.0084405190 0.3767161064
0.1653050131 0.0100661777 -0.2778772539
-0.0216123506 -0.0312500726 0.4692849970
0.2462035829 0.0304050100 -0.0758986279
-0.0334260532 0.0312500726 0.4685432313
-0.1799431166 -0.0312500726 0.4665903748
0.2981397426 0.0312500726 0.1570910243
-0.2221461131 -0.0270524618 0.1629152529
0.1265829866 0.0086280693 0.4120595620
0.0648533823 -0.0217817263 0.4442518602
0.2596501354 -0.0312500726 0.3146817706
-0.2988971717 -0.0261077185 -0.4685869550
-0.0100383812 0.0312500726 0.4799197967
0.2682974753 0.0031534632 -0.1058539922
-0.2334205095 0.0257803660 -0.4949703819
0.2716809519 -0.0126873009 0.2054804127
-0.0342355731 -0.0137430643 -0.4346290260
-0.0260286259 -0.0312500726 -0.4299538687
-0.1308106337 0.0312500726 0.4755676002
0.1316748191 -0.0260642333 -0.2689918632
0.0252554221 -0.0308336390 0.4573129595
0.3014950410 0.0181690893 0.2150813070
-0.1078203143 -0.0179513315 -0.4323385594
-0.3082652517 0.0107216596 0.2179032721
0.3066956914 -0.0312500726 0.1083479466
-0.0418308293 0.0242938599 0.4994059303
-0.3120316001 0.0041280931 0.2395775170
0.1955249920 -0.0301571890 0.3521026337
-0.3024604236 0.0312500726 0.2677008476
0.1593187110 0.0312500726 0.3962864333
-0.2291892487 -0.0305050387 0.4362697136
0.1696107579 0.0035850064 0.3785412463
0.1366931498 -0.0121734002 0.4426984761
-0.2589298013 -0.0312500726 0.3466336315
-0.1079993260 -0.0312500726 -0.4634394433
-0.1215255909 0.0312500726 -0.4600188492
0.2589373265 0.0085107942 0.2468200024
-0.0597699895 0.0083497998 -0.4122747513
-0.2931761141 -0.0270907070 -0.4684201820
0.0502963548 -0.0236072162 -0.3449961262
-0.2189124951 0.0312500726 0.4260938950
0.2635458417 0.0085028509 0.2338228039
-0.2565711966 0.0067702514 0.1459048358
0.2375454734 -0.0312500726 -0.1646021654
-0.2607466155 0.0153918819 0.1487610519
-0.2077251189 -0.0219450206 0.4534832331
-0.0606401200 -0.0236488269 -0.4469902600
0.0464884459 -0.0144787625 0.4837895093
-0.2786730063 -0.0312500726 0.3663843266
-0.0230813362 -0.0250411801 -0.4289433799
0.3015183411 0.0312500726 0.0383205919
-0.0478574191 0.0171664803 0.4996989657
0.0811795748 -0.0236816341 0.4713697262
0.1616226063 0.0306874005 0.3856033919
0.2977219514 0.0263710643 -0.0100519802
0.2807871565 -0.0168878554 0.1427360018
-0.1292703952 -0.0108583662 0.4582704060
0.2849871140 -0.0312500726 0.0790048781
-0.2892558559 0.0312500726 0.3412256580
0.2744485507 0.0203391730 0.1928398382
-0.3125004353 0.0104571281 -0.4946832858
0.0536863297 0.0312500726 -0.3630833588
0.1747080950 -0.0312500726 -0.2532685360
0.3019891548 0.0107075659 0.2130713125
-0.2228078307 0.0312500726 0.4220977076
0.2515846846 0.0182224242 -0.1440902829
0.1627317049 0.0241227482 -0.2309296281
-0.2956151857 0.0312500726 -0.4731912856
-0.2038311695 -0.0312500726 0.4381365561
0.2963407984 -0.0165169668 -0.0161289020
0.2725660153 -0.0240293594 0.0238699502
-0.0634001271 0.0232251631 -0.4481943480
-0.2117612212 -0.0010448682 0.1274410577
-0.1800390217 0.0312500726 0.4704281727
-0.0180801945 -0.0163399847 0.4658564280
-0.1160468057 0.0167045586 0.4620842769
0.2810289999 -0.0312500726 -0.0097220312
0.2772179852 -0.0146205644 0.0560148147
-0.2309464976 0.0043643602 -0.4946424674
-0.3114831893 0.0148319582 0.2722291478
0.0367021077 -0.0312500726 -0.3573209503
0.0193615111 0.0081292123 -0.4046036221
-0.2616008153 -0.0225487898 0.1926530991
0.1961239823 -0.0312500726 -0.2179091455
-0.3017353664 -0.0210150889 -0.4686318374
-0.0020363419 0.0276905921 -0.3810937029
-0.0205228583 -0.0311880948 -0.3919830736
0.2766949282 0.0268615721 0.0516610877
-0.2039000978 0.0312500726 0.4298922749
0.1611331930 -0.0013657458 0.3860504008
-0.2909991054 -0.0021018589 -0.4996289187
-0.1113076616 -0.0013968217 -0.4335994275
-0.1867705595 -0.0312500726 -0.4758633656
0.0846267302 0.0013160547 0.4356539158
-0.3111056140 0.0213007057 -0.4687426281
0.2680277599 -0.0312500726 -0.0430699525
0.3122031422 0.0237059726 0.1060789677
0.1349395349 0.0312500726 0.4131149312
0.2657511416 -0.0082753487 -0.1121509720
-0.2023384488 -0.0211699786 0.1574815726
0.3022785967 -0.0312500726 0.1384374482
-0.3125004353 -0.0162374220 -0.4746743231
-0.2991572790 0.0312500726 0.3278395456
-0.1559027446 -0.0312500726 0.4689893798
0.2802626056 -0.0312500726 0.2379947787
-0.0559072638 -0.0312500726 0.4750748729
-0.1473051429 -0.0100375636 -0.4453043252
-0.2792475558 0.0181651870 0.2792586674
0.1224385324 -0.0013881889 -0.3238086364
-0.2758294590 -0.0148193488 0.2186804042
-0.2806397001 -0.0147608707 0.3719946684
0.1829491023 0.0312500726 -0.2107749904
-0.1347211976 0.0312500726 -0.4691097130
0.2126664786 -0.0312500726 -0.1555148116
-0.2014129833 0.0105353072 -0.4582374964
0.2135854169 0.0312500726 -0.2035538045
0.3040161482 -0.0202121097 0.2041716348
0.3080286213 0.0280873107 0.1826788791
0.1443825471 -0.0158604349 0.4377593822
-0.0217600944 -0.0242421577 0.4977635054
0.1236292069 0.0312500726 -0.2888772796
-0.2069936361 0.0188182370 0.1266094110
-0.3054116101 0.0203978070 0.3089003089
0.0946277822 0.0027534321 -0.3491993655
-0.1908448159 0.0312500726 0.1374741755
0.2416631399 -0.0097112263 -0.1639947402
-0.3082755111 0.0102262454 0.2955329314
-0.0554245344 0.0033414627 -0.4101940679
-0.0344131399 0.0217109133 0.4989370669
-0.2810342183 0.0108722094 0.3713082759
0.3069100473 0.0303475182 0.1892673386
-0.2608268306 -0.0163838976 0.3421862394
0.0338340608 0.0312500726 0.4568223817
0.1705131268 0.0072916029 0.3776963754
-0.0110669149 -0.0161897145 0.4648658025
-0.1602023187 -0.0046671176 -0.4811495994
-0.2573900361 -0.0251810368 0.4065437367
0.2300771573 -0.0250515295 0.3054178511
0.3076415018 -0.0312500726 0.1750271610
0.2806558925 0.0164337583 0.0987199703
0.2542715139 0.0312500726 0.2824407170
-0.0047106574 -0.0312500726 -0.4061805644
0.2226071287 -0.0312500726 -0.1964413963
0.2799784319 -0.0308008137 0.0864845552
0.1958570614 -0.0312500726 0.3665979142
-0.3054518054 0.0272168061 0.3088422825
0.2832765915 0.0312500726 0.0340877590
0.0907098162 -0.0204802574 0.4327138503
-0.0310334195 0.0312500726 -0.4265893231
-0.0102538401 -0.0055261510 -0.3860630322
0.0316257121 0.0021076303 -0.3967088164
0.1928419681 -0.0312500726 0.3961571485
0.2427511593 -0.0037896790 -0.0853129058
-0.1187778665 -0.0300077874 0.4613824286
0.1963069552 0.0151508442 -0.1810068763
-0.0436569305 0.0281867497 0.4682022079
0.2784405026 -0.0021118885 0.0674674449
0.0130118629 0.0007927729 0.4923017574
0.1555172967 -0.0076741439 -0.2403560426
0.2248743431 -0.0312103494 0.3136265071
0.0540339640 -0.0312500726 0.4506473188
-0.2967958599 0.0312500726 0.2485133306
-0.2126240896 -0.0312500726 0.1524924834
0.2654489603 0.0231278215 -0.0110333352
-0.2844748048 0.0312500726 0.2578331400
0.2086351637 0.0222203737 0.3362911951
-0.1687875887 -0.0028023262 0.4762349851
0.0241278335 -0.0033334242 -0.3640767622
0.0818458809 0.0255772221 0.4369584551
-0.2646918729 -0.0210399308 0.3334811194
0.2554659398 0.0312500726 -0.0944299380
-0.0854239328 0.0224099888 -0.4235978711
0.3054186445 0.0312500726 0.1434382757
-0.2283464329 0.0140942157 -0.4943030437
0.2786327854 -0.0312500726 0.2692097466
0.1325584586 0.0312500726 0.4271057308
0.1453095810 -0.0206577486 -0.3004465261
0.1832653044 -0.0312500726 -0.2292498236
-0.2109879542 -0.0312500726 0.1434967186
-0.0792159273 -0.0265406040 0.4994072709
-0.2124356819 0.0214062373 0.4092564429
-0.2874828364 0.0312500726 0.3308844116
0.2833968774 -0.0312500726 0.0103514363
0.0635410553 -0.0312500726 -0.3473236695
0.0910676356 0.0312500726 -0.3424488507
-0.1928694426 -0.0181912118 0.4632454038
0.1438531515 0.0201893198 -0.2548005229
0.2228164725 0.0312500726 0.3364212197
-0.2889554016 -0.0312500726 -0.4717602889
0.2035057968 0.0312500726 -0.2031527240
-0.2011252480 -0.0034656194 0.4580083096
-0.2203476386 -0.0263685840 0.1622752401
0.1997548729 0.0035169101 -0.2330525223
0.2597857988 0.0312500726 -0.0822943754
-0.2388979474 -0.0221490737 0.4270705268
-0.1815266002 -0.0312500726 -0.4564489111
0.3124215813 -0.0308397010 0.1301780269
-0.2212551848 0.0168521043 -0.4616876723
-0.2793801683 -0.0265699458 0.2318083451
0.1438426916 0.0092651210 0.4381002002
0.2870718211 -0.0312500726 0.0625131596
0.2615327364 -0.0098372379 0.2397084257
-0.3122400269 0.0312500726 -0.4953020313
0.2573205850 -0.0312500726 -0.0997425971
0.0495185907 -0.0185898079 0.4828665208
-0.0451687598 -0.0291822682 0.4682748775
0.2253867530 0.0233377132 0.3127884377
0.1371333636 0.0312500726 -0.2817779297
-0.2364390892 -0.0018021228 0.4295038021
0.1926342192 -0.0312500726 -0.2063973203
0.0855812153 -0.0312500726 0.4515015604
0.1494046841 -0.0026137532 0.3956315761
-0.2525921566 0.0312500726 0.1690229403
0.0786653129 -0.0227611607 0.4384191114
-0.2043073599 -0.0300195900 0.1579232571
-0.2749895182 -0.0121706026 0.2165058646
0.1080171938 0.0312500726 -0.3309885846
-0.1979632732 0.0312500726 -0.4865809312
-0.0439097265 0.0009716119 0.4682137039
0.2798820641 0.0213076180 0.1553060256
-0.0411980069 -0.0087160987 0.4993820916
-0.2586587051 -0.0199648429 0.4049769533
0.2778399817 -0.0312500726 0.2676018932
0.2153329450 -0.0312500726 -0.1810964971
-0.1474796228 -0.0193510995 0.4515498807
-0.3109795669 0.0286963605 0.2771087887
-0.0453289713 -0.0240402139 0.4683080725
0.3031894598 -0.0102920531 0.0175617302
-0.2682729330 0.0312500726 -0.4788263225
0.3079371507 -0.0027216742 0.0497047967
-0.2069146258 0.0249320909 0.1583688682
-0.2713844925 0.0312500726 0.1815992870
0.1674115452 -0.0191044735 -0.2753546196
-0.2711776545 0.0144868157 0.3876364034
-0.3077242551 -0.0012313341 0.2984792255
-0.2689884283 0.0312500726 -0.4734431124
-0.1571223265 0.0312500726 0.4780670019
-0.2454225473 -0.0181780153 0.3698319841
-0.2604088123 -0.0072671126 0.3430954274
0.1974342070 0.0183575774 -0.1790971223
0.1300246213 0.0264677549 0.4467935585
-0.0185693375 0.0210009216 -0.4265463115
0.2663893676 -0.0154798699 0.2249432196
0.0853291589 -0.0003411778 -0.3157485241
-0.1671845159 0.0155717993 -0.4506856166
-0.2980324184 -0.0290069022 -0.4998188098
0.2647093616 -0.0235556883 -0.1146520277
-0.3115918493 0.0312500726 0.2632534195
-0.2405631221 0.0070256433 0.3770033704
-0.1507887944 -0.0002934252 0.4838458823
0.0497141747 -0.0312500726 -0.3525285524
-0.0237031799 0.0312500726 0.4952080782
0.0721493298 0.0299395346 -0.3675849011
0.2647838663 -0.0303636682 -0.0138155083
0.2717037339 -0.0312500726 0.2898850217
-0.3118563625 0.0154665764 0.2678242996
0.2615391019 0.0312500726 -0.0588711208
-0.2816659418 -0.0009244755 0.3701976373
-0.3113311512 0.0157925910 0.2738124734
-0.1691700696 0.0312500726 -0.4766151998
0.0226949668 0.0312500726 0.4738612447
0.2409114798 -0.0189915104 0.2865135878
0.2884983032 0.0061642282 0.2569488783
-0.3082378006 0.0192064291 0.2181083374
-0.2122804560 0.0287064795 0.4093616948
-0.2962355259 0.0143928247 0.3385888939
