0.1285217993 0.1666676578 0.4392272943
0.0081882984 -0.3333353156 0.1105607396
-0.0303475766 0.1666676578 0.4903423972
0.2278978520 -0.0416669145 0.0071724187
-0.4598369987 0.1666676578 -0.1027332521
-0.3019879289 0.3333353156 0.3043454287
0.4836128818 0.2452284718 -0.1268472820
0.3359396819 0.3333353156 0.2547602577
0.1863417823 0.3333353156 -0.2750154927
-0.0167771996 -0.1447923437 -0.1238007580
-0.3232133226 0.1025274006 0.1900435416
-0.3391070265 0.0167269283 -0.1599375420
0.1800409428 0.2337609313 0.4664281482
0.1869647253 0.2377632412 0.4637188909
0.3292234299 0.1873036471 -0.3762770162
0.1400396766 -0.0416669145 -0.2216097757
0.0787987920 0.0133841787 -0.3665790813
-0.3305655254 0.3333353156 0.2772386036
0.4998711735 0.1735061205 0.0101635568
-0.1721874766 0.1453519670 0.3330856561
-0.3726049730 0.1666676578 -0.0439430693
0.3663024649 0.0598893040 -0.0802468622
0.4681737975 0.2307284296 -0.1754925911
0.3749178771 0.0174858434 -0.0062910521
-0.1476230157 0.3333353156 0.0689938200
-0.4102896001 0.1666676578 0.2579046168
0.2100966354 -0.0416669145 -0.0923734538
0.3519973496 0.1666676578 -0.2278467102
-0.1106778125 -0.0416669145 -0.2913066130
-0.1227752685 0.2178760273 -0.4846674285
-0.4258726066 0.2208773743 0.2619726674
0.1846089037 -0.0416669145 -0.0055259571
-0.0300073424 -0.0416669145 -0.1485146794
0.2109018262 0.1636891902 -0.3100049172
0.3071326366 -0.0416669145 -0.0302701167
-0.1742215858 0.1666676578 -0.4391384569
0.3107276969 0.0202545383 0.2098209339
0.0226592650 0.2386734980 -0.4994868735
-0.1122500750 0.3333353156 0.4048744136
0.1568254260 -0.0416669145 0.2567076057
0.1355652456 0.2150829343 0.4812483726
0.4601289645 0.2950327547 0.1956393916
0.0664291030 0.3333353156 0.4727338202
-0.3741438456 0.1408291449 0.0247774415
-0.2872730495 -0.0416669145 -0.0843116113
-0.0934955805 -0.3333353156 -0.0209514975
-0.1865792786 0.3244043872 0.4638657000
-0.0406350540 0.3333353156 -0.0125516067
-0.1172742502 -0.0416669145 -0.3369789984
0.0880473183 0.3333353156 0.1691920834
-0.0532678133 0.1666676578 -0.4682754532
-0.4927382079 0.3123152975 0.0845505529
-0.0052036947 0.2235533317 0.4999650336
-0.2851386188 0.3087587468 -0.4106956861
-0.3175880909 0.1967932432 -0.3861491930
0.2761631438 0.1666676578 0.2991105581
-0.3702563828 0.0661163977 -0.0591499844
0.0580842349 -0.0416669145 0.2911858656
-0.0036865647 0.2285294344 0.4999726730
-0.2657239429 0.2112287198 0.4235391783
-0.0490306384 0.2108159474 0.4975824871
-0.1038144200 -0.0416669145 0.3088618400
-0.2082227036 0.1570704460 -0.3118193271
0.2679284103 0.1878414411 0.4220937131
-0.2406624561 -0.0416669145 -0.2305528566
-0.3462688286 0.3333353156 -0.0146653648
-0.4997368655 0.2704557653 -0.0152665173
-0.2162624830 0.3333353156 0.0981900855
-0.3891628324 0.3333353156 0.2666842768
0.1503082105 -0.0416669145 0.2637981321
-0.0905458207 -0.0999402196 0.0860551252
0.1546601085 0.1666676578 -0.4017094337
-0.1884701319 0.1241621448 -0.3241745006
-0.1887072715 0.0410869534 0.3240344905
0.0628192678 0.3333353156 0.4436260185
-0.0268406222 -0.2179436333 -0.1218843067
-0.0591729791 0.3333353156 0.2660687732
0.0780409246 -0.0749517478 0.0974336013
-0.3716238122 0.1617842797 0.0499027752
-0.1221970090 -0.3282052940 0.0259311221
0.3769023528 0.3333353156 0.0826217737
-0.1832757725 0.0822989356 -0.3271039523
0.1109569050 -0.2003054182 -0.0573585059
0.1924570925 0.2794074130 -0.4614683350
-0.0972771171 0.3333353156 0.4143046665
0.0411320978 0.3333353156 -0.2649305421
0.3749727719 0.0621250733 -0.0020958135
0.3619196266 0.1666676578 0.1752907005
0.1142438718 -0.0227223702 -0.3571361622
0.3775920815 0.1776659022 0.3276896883
-0.1063785964 0.3333353156 0.0746555198
0.1345184945 0.3333353156 -0.4270122065
0.1070758895 -0.0416669145 -0.2710669851
0.1174539306 -0.2821322596 0.0426343011
0.4638217958 0.2061679428 -0.1866998279
0.2657837806 0.0061883805 0.2644570828
-0.0673086982 0.2968224408 0.4954323266
-0.2870298590 0.2893835497 0.4093859379
-0.2443260968 0.3181597484 0.4362249647
0.2830096583 0.3333353156 -0.2990553977
0.3883192854 0.1666676578 0.0734529524
-0.3083400175 0.3293345973 -0.3935497855
0.2837303362 0.1666676578 0.2787287712
0.3033012182 0.3333353156 -0.1346409904
0.3644129614 0.1666676578 0.1185599456
0.2111144816 0.3333353156 0.2320045600
-0.4967275580 0.3168613132 0.0566331447
-0.3636729020 0.0810759920 0.0913787798
-0.0257561767 0.3333353156 0.2201283307
0.2552569136 0.3333353156 0.1777788465
-0.0388358047 -0.1425224672 0.1185635901
0.4989391556 0.2412767243 -0.0324915456
-0.3903152243 0.1666676578 0.0978657533
-0.1988629228 -0.0416669145 -0.2133618200
-0.0202351136 -0.2243323281 0.1233454508
0.0037799773 0.3333353156 0.2633372926
-0.0450534798 0.2657778655 -0.4979672754
0.2775386050 0.3333353156 0.1836556381
-0.0523904446 -0.1653596765 -0.1134840441
0.2127604892 0.3333353156 -0.4061271165
-0.1714159818 0.3333353156 0.0660565323
-0.3724401303 0.0493635872 -0.0432517263
-0.3714133418 0.0373786307 -0.0514019448
-0.2242200211 0.2844598281 -0.4468573621
0.0126962177 0.3333353156 0.4541641083
-0.1256196100 -0.0416669145 -0.0744806921
0.3696460763 0.2808909791 0.3366189318
-0.1570065187 0.3333353156 0.2320495387
-0.2433163164 0.3197256126 0.4367815902
0.0340507771 0.3333353156 0.4652491789
-0.1769529969 0.3176987904 0.4675980250
-0.4645675920 0.1666676578 -0.1183819809
0.3907906234 0.2000011677 -0.3118631590
-0.2082950331 -0.0416669145 -0.0300631173
-0.3103384147 0.3333353156 -0.2981627899
-0.3474333358 0.3333353156 -0.1925921402
0.1043101560 0.1788840859 -0.4889909999
0.1219471576 -0.1230943660 0.0274073354
-0.3368495490 0.2773037386 -0.3694771624
-0.2139525989 -0.0416669145 -0.0418078170
-0.1002864206 0.2747824985 0.4897928719
0.1189649506 -0.2761959605 -0.0379541946
0.3439910310 0.1666676578 -0.2875096793
-0.1249317883 -0.1599529527 -0.0003099221
0.1629111926 0.3118672059 0.4726777703
-0.0325046423 0.3333353156 0.3538468814
-0.3964203207 0.3333353156 -0.2703120336
-0.2659176639 0.3333353156 0.4135001803
0.0725771807 0.3333353156 -0.3407611480
-0.1964126786 0.1666676578 0.4525324438
0.1239467769 -0.2283755628 -0.0157133596
-0.4383879474 0.3333353156 -0.0347346267
0.1351474054 -0.0416669145 0.2483475920
0.1164588175 -0.3019781879 -0.0453638947
0.0834791472 0.3014792925 -0.4929456928
-0.3704795063 0.1666676578 -0.1338254870
0.0252227906 -0.1917455556 0.1223949309
0.2172295217 0.1289385758 -0.3056307428
0.2837756961 0.2610481745 -0.4116480325
0.3341778088 0.0232956581 0.1700457990
-0.3595713726 0.0421717910 0.1063539482
-0.0234712913 0.3333353156 0.0424335347
-0.2714475698 0.3333353156 0.2471203282
-0.4989765018 0.3109722752 -0.0315673273
-0.2840835280 0.0388282465 -0.2447197793
-0.2118253415 0.1666676578 0.3668518074
-0.0416620667 -0.3333353156 -0.0683054688
-0.1212288478 0.2611416744 -0.4850677266
-0.1896662007 0.3333353156 0.4608166562
-0.3663294817 0.0762100061 -0.0799358592
-0.3362237912 -0.0416669145 0.0064036626
0.4666734683 0.1796175293 -0.1794381821
0.4032267241 0.3151736853 0.2955623185
0.3675745770 0.1192596391 0.0741626992
-0.2754417990 0.3333353156 0.3775693001
0.1213722400 -0.0416669145 -0.0590415941
-0.1377646327 -0.0416669145 0.2483724972
-0.2535053541 0.1670695415 -0.4309225079
-0.0163351127 -0.0232962457 -0.3746105391
-0.3401543444 0.1666676578 -0.3111648584
0.0311479310 0.3333353156 -0.4820011587
-0.0434092022 0.3333353156 -0.1815202381
0.1682396420 0.3333353156 -0.4458696826
-0.1715504743 0.3333353156 -0.4529662006
-0.1049137042 -0.0329964778 0.3599898291
0.2659459697 -0.0242186397 0.2642960900
-0.2428452987 0.1556779060 -0.2856973920
0.1162766091 -0.0416669145 0.2609225462
0.0889289949 0.3060965272 -0.4920071180
-0.3666033984 0.3333353156 -0.3245392975
-0.2915407741 0.0901810463 -0.2358451372
-0.1229214189 0.3333353156 0.0544255029
-0.4567073739 0.1666676578 0.1039985418
-0.2423329196 0.3333353156 0.3050904941
0.2789211273 0.3333353156 -0.3812001982
0.4433682640 0.3333353156 -0.1672740852
0.4963741976 0.2789134640 0.0597979819
0.1242716745 0.3333353156 -0.2724180966
0.0571329061 -0.3333353156 -0.0643749254
-0.1517878285 0.1954047235 0.4763530798
-0.0161613236 -0.3333353156 0.0654614298
-0.4828697533 0.2187818694 0.1296171715
0.0743226717 0.0117391492 0.3675337632
-0.3547547963 0.1666676578 0.3182595785
-0.3143539006 0.1666676578 0.3107392679
0.4772742737 0.1987044315 0.1489084990
0.4941460938 0.2261610211 -0.0760517613
0.4969223785 0.1958367715 -0.0551076299
0.3742921855 0.0504567393 -0.0219921586
0.3127883406 0.3333353156 0.1071122599
-0.2038669492 -0.0416669145 -0.1567290388
0.2473064454 -0.0416669145 -0.2379666187
0.0607802503 -0.0639935338 0.1091508658
-0.1770594719 0.0148105998 0.3305398201
0.3423690229 0.3333353156 0.1438002706
0.0737596855 -0.0328009317 -0.3676315183
-0.1613469904 -0.0416669145 -0.2592380519
0.4124690379 0.1666676578 0.1617781098
0.0619574008 0.3333353156 -0.4778647193
0.1431370775 0.1160218004 -0.3465818024
0.2186475583 0.0547296841 -0.3046218755
-0.1838552924 0.3155350022 -0.4649479949
0.0712779749 -0.2042629336 -0.1026655889
-0.1804861493 0.3333353156 -0.1297983150
-0.3490221063 0.1375061528 0.1369457100
0.1631575649 -0.0416669145 0.1200230962
0.1962970158 0.3333353156 0.1285702817
0.4773652758 0.1951338294 0.1485658684
0.0087821373 0.3333353156 -0.1506951698
-0.1363273793 0.1989944850 0.4810191185
-0.1552771185 0.3333353156 0.1109718810
0.2694271331 0.1666676578 -0.3615157054
-0.0907967013 -0.0870943080 -0.0857507940
0.0083241835 0.3333353156 0.1232864662
0.0237127505 0.3333353156 -0.2972675619
0.1534222642 -0.0416669145 -0.2167575614
-0.0354035159 0.2785695647 0.4987040769
0.1988572841 0.1264459802 0.3178691029
0.3734831624 0.1666676578 0.0777537743
-0.0082806437 0.2866232019 -0.4999185204
0.0902564439 -0.2206325351 0.0863991926
-0.3441106994 0.2229928276 -0.3627417516
-0.1152572594 -0.1666522213 -0.0482566214
0.1924660332 0.1666676578 -0.3715259265
-0.4151095944 0.3236138829 -0.2786939582
-0.2419009898 0.0991488268 0.2865103278
-0.1129953559 0.3333353156 0.0185962774
0.1547583224 0.3333353156 0.3133417168
-0.4330877797 0.2910033200 0.2498115413
-0.2235606121 -0.0416669145 0.1795749188
-0.1225177836 0.3333353156 0.4722754162
0.0742771274 0.2942331661 0.4944355206
0.1248143368 -0.2470332344 -0.0065474298
0.1235972101 0.1537108123 0.3540250461
-0.0250015252 0.2109181190 -0.4993624239
-0.1658016741 -0.0416669145 -0.1838147810
-0.2791002022 0.0706202661 0.2503876142
-0.0346055934 -0.0416669145 0.2371956176
-0.2702977968 0.3333353156 0.1853861757
0.0230034587 0.3333353156 0.2323162572
0.1974692461 -0.0416669145 0.0600494652
0.3643763458 0.1913599504 0.3423285260
0.0441549546 0.2902249945 0.4980197280
-0.0897332113 0.3333353156 0.2711422910
-0.1152461763 -0.0680904920 0.0481727644
0.0927704434 0.3333353156 0.1871385074
0.1230995831 -0.1900021622 0.0203420917
-0.2527803726 0.1666676578 -0.3604701121
0.3474129614 -0.0323882614 0.1411395210
0.2082216088 0.1666676578 -0.3190892391
-0.0593374196 0.3333353156 -0.4715561389
0.1749152668 0.3333353156 0.0511695402
0.0970428758 -0.3333353156 0.0567894972
-0.2423657814 0.0743742325 -0.2861424814
0.2001136840 0.3333353156 -0.1581431966
0.1868373288 -0.0098278064 -0.3251322273
-0.1124185894 -0.1257141238 0.0542651073
0.1840602621 -0.0416669145 0.2807318630
0.4377765940 0.1666676578 -0.1285986287
-0.3163254373 -0.0416669145 0.1863843342
-0.3387254100 0.0823219797 0.1607806503
0.2561216438 -0.0416669145 0.0540765021
0.0775009301 0.3333353156 -0.0927298617
-0.0209821612 -0.2120345733 0.1232210577
-0.2591706772 0.2770685336 0.4275550451
0.4807467816 0.2332242347 0.1373516756
-0.3397288683 0.2036693099 0.3668286225
-0.0362199932 0.2568450730 -0.4986656080
-0.2390127217 0.3333353156 0.3226900597
-0.2678609279 0.1666676578 -0.3533250072
0.2082473629 0.0424392166 -0.3118461410
-0.1067139101 0.3333353156 -0.3567187710
0.3124204542 0.3324948410 0.3903120615
-0.2651199864 0.3333353156 0.1294023691
0.3542108371 0.3333353156 0.1849536950
-0.3908255109 0.2647596370 0.3118535158
-0.1084769171 0.0066305599 -0.3589497204
-0.1182128627 -0.3047841511 0.0403995229
0.0579977328 0.1666676578 -0.4130495405
-0.3185097832 0.1666676578 0.2351984213
-0.0314896167 0.0219038612 0.3736572499
0.0027274266 -0.3322682185 0.1247528746
-0.4841875631 0.2956779498 0.1247266189
0.4700948350 0.2567050896 0.1702675370
-0.1751052679 -0.0416669145 -0.1227829469
0.3621217369 -0.0266729529 0.0972948995
0.2160211587 0.3333353156 -0.3466785331
-0.1719931775 -0.0416669145 0.2691193540
0.1634395000 0.0529673660 0.3374609948
-0.3615444986 0.2763860085 0.3453407333
-0.1057186839 -0.2467910559 0.0665791333
0.3323339793 0.0513540456 0.1736818084
-0.0872413725 -0.0416669145 0.1277283917
-0.3185381800 0.1346477757 -0.1977852386
-0.1385569118 0.1666676578 -0.3521389246
0.1144635165 0.3333353156 0.3478646881
0.1667110660 -0.0416669145 -0.2011709282
-0.2658916683 0.1796042254 0.4234099333
0.4604926183 0.1666676578 -0.0055800918
0.4884717628 0.1762715782 0.1066448885
0.3254181690 -0.0416669145 0.0100740364
-0.3111058708 0.3333353156 -0.1614810956
-0.1190159442 0.0377777829 -0.3555676793
-0.3742280337 0.0111882545 -0.0235535790
0.3374979211 -0.0170437840 -0.1633757212
-0.1594870869 0.3333353156 -0.4186610964
-0.4979714849 0.2190129456 -0.0446028663
0.1843943293 -0.0416669145 -0.0271391027
0.3949403018 0.1666676578 -0.2143592150
-0.4414405064 0.1666676578 -0.0766371988
0.3209758432 0.2834998657 -0.3833484153
0.0306500395 -0.2122871198 0.1210715528
0.3053683819 -0.0416669145 0.1111775098
-0.3306043706 0.0899437725 0.1769210117
-0.0588284290 -0.3333353156 0.0350183700
0.0737722206 -0.1779297445 -0.1007878657
-0.4778136079 0.3154941941 -0.1471035497
-0.1622621203 0.3333353156 0.3173578575
0.0190112242 0.0938130399 0.3744543943
-0.1879247593 0.3333353156 -0.1429789202
0.3224337531 0.3333353156 -0.0745951283
0.2380981900 0.0035553522 -0.2896196670
-0.4014507266 0.3333353156 -0.0124899943
-0.3208744717 0.3333353156 0.1756399276
-0.3167909024 -0.0416669145 -0.0401471267
0.2575926723 0.3333353156 0.1647164262
0.0947339266 -0.3333353156 -0.0478699135
0.1272107414 -0.0416669145 -0.3439667011
-0.3713342015 0.2577198639 -0.3348051580
-0.4802397053 0.2521579739 0.1390927248
-0.0728542921 -0.0416669145 0.1382657289
0.1844316693 -0.0416669145 0.1559052645
0.2732400453 0.0567051172 0.2567928921
-0.2691240570 0.1773021903 -0.4213753850
0.1758988669 0.3333353156 -0.2009993571
-0.1874967275 0.3333353156 -0.1578398619
-0.3375034413 0.1666676578 0.2295464488
-0.3550075083 0.0701652715 -0.1207037474
0.0023740852 0.3333353156 0.4490107100
0.2494340386 0.1666676578 0.4124047901
-0.1163124195 -0.1038485509 -0.0456077035
-0.0162701411 -0.0416669145 -0.2652822431
0.0301611248 -0.1460992800 -0.1212451539
0.0972974781 -0.3333353156 -0.0470969951
0.1670819185 0.3333353156 0.4483137976
-0.2543369302 0.3333353156 -0.1158808150
-0.1621824613 -0.0416669145 0.1758347172
0.2921400514 0.3333353156 -0.2782049593
-0.3030115029 -0.0416669145 -0.2111104176
0.0373793377 -0.0015331594 -0.3730856277
0.0499732193 0.1453298262 0.3716225650
-0.0378747753 -0.0416669145 -0.2943690824
-0.3293311612 0.3333353156 -0.1524393552
0.1829717444 -0.0416669145 -0.2044573079
-0.3471043963 0.3333353156 0.1087930879
0.1989769446 -0.0416669145 -0.0008173698
-0.3913707275 0.3330838454 0.3111709145
-0.1511693888 0.3333353156 0.1374891752
-0.0515521947 0.2309210999 -0.4973232224
-0.2219195227 0.3333353156 0.1563741751
0.2671899297 0.1074425581 -0.2631236478
-0.3223581239 0.1666676578 -0.2002962893
-0.4254914113 0.3333353156 -0.1701773210
0.4544379203 0.2042688992 0.2084379360
-0.4909074766 0.2698572422 0.0948205145
-0.3468400919 0.1587367647 -0.1424966957
0.2786183554 0.2132650791 0.4151526004
-0.1725348192 0.3227406379 -0.4692772991
0.1604229549 -0.0416669145 0.0223263403
0.3775567399 0.1666676578 0.0281941160
-0.3126902828 0.1666676578 -0.3495841566
-0.3358821579 -0.0416669145 0.0407357056
-0.4814066640 0.2857379617 -0.1349877561
0.0938844696 -0.0416669145 0.3105372826
-0.3283635089 0.3079392080 0.3770305925
-0.3677854991 0.0178725241 -0.0727946356
-0.1009919392 -0.0163286666 0.3610855172
0.0907182888 0.3333353156 0.1648639916
0.2975096612 0.2247120060 -0.4018529283
-0.3124383826 0.0831611350 -0.2073564233
0.0536458371 -0.3333353156 0.0735294872
-0.0289674859 0.3333353156 -0.3582589488
-0.0198395221 -0.0416669145 0.1235705620
-0.1870814587 0.1666676578 0.3774835697
-0.3715900023 0.1349412973 0.0502754907
0.0211169489 0.3333353156 0.4773338826
0.0504532757 0.0059989804 0.3715503157
0.1449078677 -0.0116670464 -0.3458546110
-0.3674928717 0.3333353156 -0.2687941937
-0.2761693762 -0.0416669145 -0.2418876806
0.4998195062 0.2819613779 -0.0127288396
-0.0574313716 0.0910464165 -0.3705176044
0.4315595849 0.1666676578 -0.1788648242
-0.2504332419 0.1735671445 0.4327274781
0.1584521104 -0.0034001357 0.3398437288
0.2473332059 0.2664837634 -0.4345002377
-0.2391515766 0.3333353156 -0.1535489798
-0.1644295369 0.3333353156 -0.2523260354
-0.3489938742 0.0488536147 -0.1371807866
-0.4607046161 0.2587700219 0.1942797565
0.1508871777 -0.0416669145 -0.1935220981
0.1660755111 0.2964573821 0.4715823037
-0.4034814424 0.3297965148 0.2952436876
-0.0726386356 -0.0416669145 0.2969547556
0.2883452390 -0.0249916950 -0.2397324994
0.1434845894 0.2911365795 0.4789585571
0.0992259422 -0.0416669145 0.2678443416
0.0541336732 0.2475317108 0.4970406144
0.0321411045 0.3333353156 0.2881190228
0.1022449882 0.3333353156 -0.1887571672
0.1157829904 -0.0416669145 0.1782607226
0.2147703215 0.1103972563 -0.3073404322
-0.1143709522 0.3333353156 0.0394255684
-0.2474164766 0.3333353156 -0.3081825031
0.0010074256 -0.1039760215 -0.1247680586
0.4968759086 0.3142839932 0.0557770764
0.3585018028 0.3333353156 -0.1084191956
-0.2732871692 0.3333353156 0.3318863654
-0.3513939566 0.3013489753 -0.3556780545
0.1261077360 0.3333353156 -0.4389161435
-0.4548727460 0.3333353156 0.1570632161
-0.4345105181 0.3333353156 -0.1331077561
0.3254408145 -0.0373079219 0.1862035080
-0.2382489758 0.3333353156 0.4035644282
-0.3734520456 -0.0155472910 0.0333559695
-0.2633711225 0.1424018025 0.2668878074
0.3665138118 0.1348203490 0.0791851894
-0.2265771219 -0.0010370777 0.2987811091
-0.2831445011 0.3333353156 0.0831710608
0.1504640702 -0.0416669145 -0.1779972331
0.1208780370 -0.1009754608 -0.0313287587
0.3904256220 0.3333353156 -0.1785080426
-0.0396563443 -0.2004895946 0.1184788844
-0.2329257042 0.3333353156 -0.1701210800
0.0331699992 0.3333353156 -0.3511512702
-0.1865763925 -0.0416669145 -0.2304997117
0.0616359526 0.3333353156 0.0422600565
-0.3709145659 0.1498556379 -0.0547331642
0.1562371516 0.3333353156 0.3646527401
-0.3609087066 0.0483994258 -0.1015546560
-0.0450677369 -0.2906689185 -0.1164821679
-0.0045399883 -0.0416669145 0.3045106258
-0.2641035594 -0.0416669145 0.1377161261
-0.3274523297 0.3333353156 0.0216096801
0.1438153982 0.3333353156 -0.0693320938
0.4512545285 0.1945995528 -0.2152837610
-0.3463135116 0.3333353156 0.1654037076
-0.4354921452 0.1666676578 0.0516211258
-0.1408683547 0.3333353156 0.3726487752
-0.1504282487 -0.0416669145 -0.1303611582
-0.2092052544 -0.0416669145 -0.0961528469
-0.3915924805 0.3333353156 -0.1203527949
0.1868873328 0.1666676578 0.3542429437
-0.1651664733 0.3333353156 -0.3608679471
-0.1982622700 0.0937767163 0.3182347760
-0.3859933695 0.1666676578 0.1016451350
0.4812153305 0.2572680942 0.1357333305
-0.0731684369 -0.1391263927 -0.1011377962
-0.4241221481 0.1837476361 -0.2647663210
-0.3741685129 -0.0331796697 -0.0243436390
-0.3252330959 0.3333353156 0.2165233829
0.4690760828 0.3333353156 -0.0460460874
0.4429231297 0.2631414491 0.2318915776
-0.2992703317 0.3333353156 -0.2385680385
0.0216338685 0.3333353156 -0.1820127021
0.0429668205 0.0279401672 0.3725141322
-0.2612573129 0.3333353156 -0.3688779549
0.2985626102 0.0706229646 0.2268518266
-0.2392493091 0.1666676578 0.3753520500
-0.1150887207 0.3333353156 0.3968197855
-0.0434896151 0.3333353156 0.2416009732
-0.1678612606 0.3333353156 -0.3111153029
0.0521151673 -0.0416669145 0.3663748984
0.0742844150 -0.1856998001 -0.1003942897
-0.1853927868 -0.0181116304 0.3259227888
0.0571097989 0.1666676578 0.3901444161
-0.2144089675 0.0000113770 -0.3075935147
-0.2113614878 0.2694573711 0.4531268818
0.2055202064 0.3333353156 0.0642138106
-0.2580754402 0.1101575022 0.2719985354
-0.3289526835 0.3333353156 0.0607520672
-0.2073608581 0.0866758312 0.3124174481
0.0848156552 0.3333353156 -0.4909991821
0.2124467377 -0.0416669145 0.2186676854
-0.3563867654 0.1176835458 0.1165939603
0.2340389043 -0.0416669145 0.2641988427
-0.0559269821 -0.1765524642 -0.1116928987
-0.0327957397 -0.3333353156 -0.0595359363
0.0236080360 0.3063074321 0.4994218135
0.0408008049 0.3333353156 0.2591416850
0.4002473239 0.1805051994 -0.2996489624
-0.3599639115 -0.0055061979 -0.1049629455
0.2173024852 0.3333353156 -0.4463639186
-0.4894625663 0.1666676578 -0.0086863203
-0.3491136313 0.2027517736 0.3579051662
0.1526844779 0.1666676578 -0.3537463800
-0.2921816847 0.2137673103 0.4057218613
-0.1400495335 -0.0416669145 0.3032738684
-0.2197321723 0.3333353156 0.1853663839
0.3320541778 0.1484622534 0.1742205979
0.0843389083 0.3333353156 -0.2092654236
0.3026976896 0.3208398013 0.3979438582
-0.1217294595 0.3333353156 0.3272625038
0.1543994268 0.1849285125 0.4755013978
-0.3732580139 -0.0182368118 -0.0358007898
0.3600736680 0.3333353156 -0.2171519655
-0.0493865616 -0.2707292386 -0.1147689470
0.1928513735 -0.0416669145 -0.2634165738
-0.0837855540 0.3333353156 -0.1728172212
0.3829391879 0.1666676578 0.1753398642
0.2900058382 0.0556787240 0.2376753012
-0.4209513713 0.1666676578 -0.0553620710
-0.4325780723 0.3333353156 0.0406748971
0.0511335490 -0.0416669145 0.3152549444
0.3966738325 0.3333353156 0.1924207175
-0.2415741795 0.0298460902 0.2867372107
-0.1378051422 0.3333353156 0.3900200800
-0.1465505838 -0.0416669145 0.3028837297
0.0587938759 -0.0416669145 0.2860168346
0.3572757537 0.1502677131 0.1137914238
0.3423484649 -0.0416669145 -0.0552631065
0.3263977179 0.3147532949 -0.3787488299
0.1850827762 -0.0416669145 0.3209611595
-0.3755222596 0.1666676578 0.2974624968
0.0771938565 0.3333353156 -0.1896817865
0.1918416204 0.0767988523 -0.3221487647
0.0159178081 0.1666676578 -0.4438306532
-0.2740619522 -0.0416669145 -0.1477966596
0.0454639735 0.3333353156 0.4526878675
-0.4412910353 0.1666676578 -0.1917172250
0.3369418275 0.2175532594 0.3694190450
-0.1633785148 0.3333353156 0.2956793274
0.3733545217 0.2355001780 0.3325407107
0.3025023404 0.2881904475 0.3980928399
-0.4116757302 0.1666676578 0.0974393390
-0.3847142061 0.3333353156 -0.2223808438
0.3431124183 0.0895412740 0.1512936559
0.2651936279 -0.0317934294 -0.2650852412
0.0705724921 -0.3333353156 -0.0593610888
0.2140933102 -0.0416669145 -0.0124911612
-0.3088906149 0.3333353156 -0.2094643244
0.0677362515 -0.0416669145 0.2056807947
0.3990904202 0.3333353156 -0.0318218036
0.4406967870 0.3333353156 -0.2022735549
0.1851107793 0.3333353156 0.3710541949
-0.0960028542 -0.3184957284 -0.0797359547
0.1499329738 0.2878246573 0.4769735677
-0.2371522288 0.2819257093 -0.4401280007
0.3623409102 -0.0151852926 -0.0965312972
-0.2443064676 -0.0416669145 -0.2704412517
-0.1669006784 0.3333353156 -0.3269518165
0.4887496216 0.2175718011 0.1054769289
0.3771527481 0.2001262813 -0.3282363396
0.1905470898 0.3333353156 -0.4143416270
-0.2641105515 -0.0416669145 -0.0635775422
-0.1799627490 -0.0416669145 -0.1435200844
-0.0066433404 -0.0688252954 0.1247633681
-0.1453884439 -0.0416669145 0.2002047879
0.0284693967 -0.1349664676 -0.1216206824
-0.3614081013 -0.0379011978 0.0999736435
-0.0216464725 -0.2420304191 0.1230501362
0.2781785120 -0.0416669145 0.0051712917
-0.1409158797 0.3333353156 0.2938686614
0.1764259940 -0.0416669145 -0.2212397387
0.1202099358 0.1666676578 -0.4594135691
-0.2298551206 0.3333353156 -0.4291306359
-0.4451010584 0.3333353156 -0.0215105049
-0.0733199812 -0.2501464395 0.1010971017
0.4865512697 0.3333353156 -0.0421955081
-0.1085693477 -0.2064312775 -0.0619028193
-0.3481104581 0.3333353156 -0.0154607621
-0.0269120311 0.1666676578 -0.4311347864
0.3049502437 0.1666676578 0.2328909927
0.1271155670 0.1666676578 0.4334283764
-0.3286816188 0.3333353156 -0.0134050934
0.4311587249 0.2643473660 0.2531304577
-0.3373908877 0.2486932670 0.3689645883
0.4975698048 0.1689778324 0.0490496218
-0.0216717204 0.2166980328 0.4995165145
0.3641903131 0.2521208302 -0.3425610127
-0.3323091328 0.3333353156 0.2503044457
0.4708094423 0.2236170497 0.1682405266
0.0886004676 0.0950730607 -0.3643670369
-0.4035313923 0.2130700581 -0.2951959711
0.4430018836 0.1788049416 0.2318055333
-0.4214583689 0.1963279093 0.2689418301
-0.4999590147 0.3270379734 0.0023741702
-0.3534626459 -0.0369049875 0.1251197248
0.0554042087 -0.0364926486 0.3708629147
-0.2594977553 0.2336770002 0.4273840862
0.1480091246 0.3333353156 -0.3990674321
0.0322281601 -0.0416669145 0.3586036838
-0.0524955541 0.2931986443 0.4972048927
-0.4031277122 0.1666676578 0.0273599533
-0.1053787041 0.3333353156 -0.2564677728
-0.1205236774 0.1666676578 -0.4613861130
-0.1860319875 0.1666676578 -0.4003642460
-0.3266453177 0.3333353156 -0.2007116474
-0.3146007344 0.3333353156 -0.1997485208
-0.0138154732 0.3333353156 0.2419365271
0.2127435345 -0.0416669145 -0.2113669460
0.3076734479 0.3333353156 -0.3647522844
-0.0537036216 -0.2445034265 -0.1127757377
-0.3878460683 0.2050849601 0.3154966720
-0.3648102015 0.0075672768 0.0865993316
-0.4492615682 0.3333353156 0.1873238783
-0.3111735000 0.2777442959 0.3913065066
0.1234037616 0.3333353156 -0.0461097971
-0.0628179894 0.1666676578 0.3763041250
-0.2687015816 0.1666676578 -0.4079181444
0.3740877672 0.3333353156 0.0371872317
0.0806589175 -0.1136436952 0.0954681886
-0.2632896777 0.3333353156 0.0204383478
0.2326558855 -0.0416669145 -0.2522605714
-0.3816122507 0.1666676578 0.0796917584
-0.3806687607 0.3333353156 -0.0116006480
-0.3504542007 0.1272156405 0.1333722349
-0.1452704042 0.2634226002 -0.4784146171
0.3170502929 0.0446877573 -0.2002432554
0.1623953116 0.1666676578 0.4183115463
-0.0102725098 -0.0416669145 -0.2186237834
0.2240749365 -0.0001124328 -0.3006251545
-0.1060909798 -0.1253261137 0.0656819184
-0.3637332985 0.2261141414 -0.3430586469
-0.2676657807 0.2364675225 0.4223138233
0.3377908269 0.0701511504 0.1627854091
0.1214983589 -0.2845391450 -0.0291230742
-0.0300859688 -0.2166578702 -0.1212375708
0.4524185435 0.2015881510 -0.2128310085
-0.3261784929 0.1317123262 -0.1849586056
-0.1201217877 0.3333353156 -0.1986511648
-0.3973777147 0.1927728701 0.3034312459
-0.4345719341 0.1666676578 0.2046477658
-0.3193666778 0.2792808061 -0.3846477351
0.4504951545 0.1666676578 -0.1165220818
0.0368231505 0.3333353156 0.2696350346
-0.0286269037 -0.2164037999 -0.1215350384
0.0443753756 -0.0416669145 0.3043121701
-0.2000427807 0.2762323516 0.4582197065
-0.0541535358 0.2443351329 -0.4970387269
0.0883152498 0.1221759077 -0.3643955793
-0.0328140762 -0.0416669145 -0.2994197660
-0.0043518057 -0.0416669145 -0.2905867743
0.3412263414 0.1666676578 -0.2786505897
-0.4853321277 0.1710310014 0.1200725984
-0.2772929104 0.0978953737 -0.2523893502
-0.1248969109 0.3333353156 -0.3031426029
-0.1655461979 0.3333353156 0.4563421467
0.1245697716 -0.1417469994 0.0102652602
-0.1453029775 0.3333353156 -0.0130566715
0.2377653874 0.3333353156 -0.3484618177
0.2834885102 -0.0416669145 0.1158431642
0.0976112232 0.1666676578 0.4900565785
-0.1024156215 0.3333353156 -0.0311625301
0.2733339903 0.3333353156 -0.0594427456
0.3040617808 0.2043838298 0.3969201941
0.0940424571 0.0389387822 -0.3630021934
-0.1741951625 0.3175045250 -0.4686429536
0.3194668263 0.1666676578 0.2456309614
-0.1266777328 0.3333353156 0.0601476785
0.3390709757 0.1440875655 0.1600845955
-0.4587321991 0.2226375082 0.1988735305
-0.0565242675 0.2180334816 0.4967889272
-0.0109830531 0.1666676578 0.4671707984
0.0241266341 -0.1193447044 -0.1224812669
0.0771260324 0.3333353156 0.4641405764
-0.0332343595 -0.3283704572 -0.1204310325
-0.0060714661 0.0178345001 0.3748712981
-0.0153997532 -0.0416669145 -0.2620239888
-0.3359008276 0.3333353156 -0.0575546213
-0.0285715399 0.1200193346 -0.3738570694
-0.2763941536 0.0956543770 0.2533907960
-0.0231861655 -0.0416669145 0.2686045781
0.3727923079 0.0992861512 -0.0405371836
-0.2249520793 0.1297307945 0.2999851206
0.3207023897 0.2112261342 0.3835770163
0.2469201726 -0.0416669145 0.0523104460
-0.3498532000 0.2729869269 -0.3572060627
0.0092099258 0.2950460832 -0.4998702805
-0.1053068702 -0.1864002256 0.0671849985
0.3671661338 0.1666676578 -0.0830129759
0.0750552202 0.3333353156 0.1327013870
0.4905705435 0.2478697033 -0.0964398614
0.2409861444 0.0964991872 0.2873017942
-0.3747270307 0.0540381282 0.0135095365
-0.1371223664 -0.0416669145 -0.0681285768
-0.3385324409 -0.0416669145 -0.1425802399
-0.0175176172 0.3333353156 -0.0451090579
0.2360480008 0.3333353156 -0.1686896090
0.0297243122 0.0927980077 0.3738166761
-0.4076744489 0.1666676578 -0.1453858752
0.4316712009 0.1666676578 0.2327990022
0.4046535083 0.3333353156 0.0599245303
0.3391568247 0.2015775287 -0.3673742778
0.2893670117 0.3333353156 -0.1783162378
0.2591125249 -0.0416669145 -0.1479838311
0.0802876871 -0.0380720860 -0.3662472774
0.2250343580 0.2373022647 0.4464786959
-0.0256989013 0.3333353156 0.4247083077
-0.4037387309 0.1666676578 -0.1062586265
0.2823723931 0.2170640104 -0.4125983814
-0.0487600514 -0.2443773185 -0.1149558117
0.1073022569 0.1542810088 0.3592799095
0.1967639953 -0.0416669145 -0.1019656373
0.4595473211 0.1777046637 0.1970215327
0.0497225731 0.3333353156 -0.2874880006
0.0391614048 -0.0805072267 -0.1186262452
0.4142585072 0.3333353156 0.0229690913
0.0160086206 -0.0416669145 -0.3591754081
-0.2785736941 0.1066578187 -0.2509829650
0.3472187977 0.3333353156 0.2420726306
0.0186589027 0.3333353156 0.4123377668
-0.2576185311 -0.0416669145 0.0556304520
0.3674552450 0.3333353156 -0.1603525537
0.2348836415 -0.0416669145 -0.1642682382
-0.3730311722 0.3333353156 -0.0530829774
-0.3633657667 -0.0058919349 -0.0925151028
-0.1405763790 0.3333353156 -0.1529164530
0.1039502786 0.3333353156 -0.2033102495
-0.0067563946 0.0882987961 0.3748889959
0.3710533565 0.0644547593 0.0540322726
-0.3472500565 0.3333353156 0.2706612011
-0.1232239120 -0.0458914099 -0.0206025465
-0.1374365712 0.3333353156 -0.3218513673
-0.1841919320 -0.0195836658 -0.3266023468
0.0098464990 0.3333353156 -0.2686611641
-0.3077919288 -0.0053686504 0.2141590586
0.3395268699 0.3333353156 0.0131730639
-0.1949512494 0.3333353156 -0.1408456250
0.2387797825 0.3333353156 -0.2838485727
-0.2991878645 0.3333353156 0.3443816912
-0.1144917215 0.1666676578 -0.3924791052
0.2796662901 0.1730737004 -0.4144486016
0.2637027081 -0.0416669145 -0.0201706699
0.1335504733 -0.0416669145 0.0207920501
0.1267823272 -0.0416669145 -0.0090213646
0.2416476780 0.3333353156 0.1688970483
-0.4923566746 0.1666676578 -0.0572944671
-0.2689773542 -0.0416669145 -0.1807412530
0.2038065527 0.2706101825 -0.4565505023
0.0735382235 -0.0416669145 0.1217309165
-0.0852114067 0.0741759230 -0.3651408710
0.4893155139 0.1773370244 -0.1027700064
-0.1791439092 -0.0416669145 0.0316656541
-0.1416968500 0.3333353156 0.0315192738
0.1903126122 0.3333353156 -0.3224483041
0.0993525605 -0.0416669145 0.2094418837
0.4994782997 0.2445609178 -0.0227046650
0.2722578568 0.1681125634 -0.4193468338
0.0252788838 0.1666676578 0.4819906508
0.1798386016 0.3288623092 -0.4664965805
0.2823162677 0.1666676578 -0.2838157135
0.3210280393 0.1593162078 -0.1937586842
0.0278403659 -0.0416669145 -0.1257074131
-0.1672930346 -0.0416669145 -0.2507217466
0.1627447976 0.2578740939 0.4727689309
0.2012426303 0.3333353156 0.3747186805
0.3427404189 0.2394204133 -0.3640170541
-0.0628342310 0.3333353156 0.0675685014
0.1773629149 0.3333353156 0.4350266541
0.3640093742 -0.0347627806 0.0900028802
0.0068723728 -0.0416669145 -0.3046212932
-0.1902013195 0.3333353156 0.1624158722
0.0391853012 -0.3333353156 -0.1012528086
0.4613552081 0.1666676578 -0.0893237829
0.1192018622 0.3333353156 0.4087904904
-0.2048001397 -0.0416669145 -0.1410576431
0.1696497065 0.3333353156 0.3038829400
-0.1195898001 -0.1499736504 0.0358844801
-0.1026607594 -0.2656962782 -0.0709937844
0.0148694212 0.1666676578 -0.4018375895
0.3640838142 0.3333353156 -0.1889056004
0.0312460465 -0.0416669145 -0.2546433278
0.0612469035 0.3333353156 0.3971400838
0.3525263103 0.2606669178 -0.3545722804
-0.4326036403 0.2394650203 -0.2506817806
0.0375974269 -0.0416669145 0.3121751259
-0.1865231297 0.0577414517 -0.3252824753
0.1831544320 -0.0416669145 0.0623116633
0.1580800500 0.3333353156 0.0345249519
-0.2349583252 0.3333353156 -0.4140241482
-0.3910842184 0.3333353156 -0.0608549257
0.3864337394 0.3333353156 0.1546447231
0.3291805521 0.1666676578 0.2939814676
0.2197293970 0.1666676578 0.3239434992
-0.2820104972 0.0259405683 -0.2471212225
0.1684614293 0.3333353156 0.0686813137
-0.3381870998 0.1666676578 -0.2801197804
0.4483830856 0.2817104650 0.2211420753
-0.3574692940 -0.0416669145 -0.0634078986
0.1898786031 0.1666676578 -0.3521986003
-0.0610676343 -0.0416669145 -0.2063597232
0.0572732210 -0.1021192934 -0.1110479723
-0.3696743594 0.1505227555 -0.0629472839
-0.4115551241 0.2712654093 0.2839083956
-0.0835301789 -0.3333353156 0.0148407604
0.1909818430 0.3333353156 0.2321455563
0.0824314803 -0.0416669145 0.3034697628
-0.3358183000 -0.0416669145 -0.1144648344
-0.1446189645 0.3333353156 -0.2633471868
-0.1950820003 -0.0416669145 0.2307495366
-0.1250196840 -0.0416669145 0.0958855860
-0.4951171714 0.2863239718 -0.0696210823
-0.1302489694 0.1114976562 -0.3515972525
-0.2829469763 0.3333353156 0.3435274989
0.0564812920 -0.0416669145 0.1493443999
-0.1172210892 0.1666676578 -0.4022881277
-0.3644895947 0.0131008668 0.0880473565
0.2952474251 0.0131323424 0.2311469751
-0.3742955425 0.0015209449 -0.0218319125
-0.2151436411 0.1666676578 0.3735777805
0.4593095841 0.1924263480 0.1975060435
0.1599431963 -0.0416669145 0.1311002921
-0.1059286402 -0.2503955454 0.0661786292
-0.3439149113 0.1960048993 0.3629163140
-0.0148590823 0.3333353156 -0.0399486083
-0.1458410402 0.3034662082 -0.4782193015
-0.1077542846 0.0389171629 -0.3591634972
-0.2914246879 -0.0416669145 -0.2259561024
0.0123543565 0.1132351948 -0.3747734155
0.3468252434 0.3333353156 -0.2015126439
0.0936065697 -0.1415133939 -0.0828122513
0.3743544412 0.1344798238 -0.0215155624
-0.3004472114 0.3333353156 0.0291559684
-0.3744547432 0.0459574777 -0.0194959483
-0.2161915607 0.0555308690 -0.3063589516
0.3737045921 -0.0139712851 -0.0307721035
-0.0178509923 -0.0416669145 -0.2832943425
0.1205269985 0.1666676578 -0.3932939345
0.2356323154 0.1666676578 -0.3944168534
0.1242672333 -0.0710915899 -0.0126989069
0.4322617526 0.1666676578 -0.2217253085
-0.0940335156 0.3333353156 0.4142554478
-0.1810395108 -0.0416669145 0.0290603229
-0.3545601523 0.0376138425 -0.1219826000
-0.1067253120 0.2667006329 -0.4884705807
0.3812046722 0.3333353156 0.2943943336
0.3411548984 0.1617064809 -0.1556029751
-0.2966342767 0.3333353156 -0.3637630759
-0.2062886958 -0.0416669145 -0.2287019464
0.2853180203 -0.0416669145 -0.1763716259
-0.3111322717 0.1559950021 0.2092535983
-0.0783463151 -0.1587690295 0.0971379676
-0.3731170383 0.3333353156 -0.1899991924
-0.0935934043 0.3333353156 -0.3837123096
-0.4661042043 0.2728040970 -0.1808825178
0.2082439942 0.3333353156 0.4066898282
0.1442618130 0.1823279785 0.4786889786
-0.3803589573 0.3333353156 -0.0612403247
0.2032446693 -0.0416669145 0.0187832139
-0.1719087102 0.3333353156 0.1522213567
-0.0926703046 -0.0416669145 -0.3294712226
-0.0311770076 0.3333353156 -0.0509706821
0.0592322326 -0.1334890151 0.1098892889
-0.1874205058 0.0217284946 -0.3247839165
-0.1026758288 -0.1255071194 0.0712633877
0.2228408658 0.3333353156 0.2734872041
-0.2641271474 0.3333353156 0.4007792032
-0.2440284854 -0.0416669145 0.0120510601
-0.2583741492 -0.0416669145 0.0445399677
0.3306505744 -0.0416669145 0.1301021965
0.2036179273 -0.0416669145 -0.1580157876
-0.2401677781 0.1454442887 -0.2879626222
0.0869469109 -0.2074689870 0.0897813007
0.1197891872 0.0319121626 -0.3553379697
0.2410747489 0.3333353156 0.1545905917
-0.1097064608 0.1666676578 -0.4369523642
0.1263573932 -0.0416669145 0.2414755347
-0.1127629009 -0.0294348783 0.3575826949
-0.3593894712 0.1666676578 0.1841462025
0.3501104193 -0.0416669145 -0.0897481427
-0.0088898347 0.2019398313 0.4998952623
-0.0185336435 -0.0416669145 -0.2179521433
-0.4201726179 0.2257877224 -0.2709797318
-0.1499911818 -0.0416669145 -0.0403467662
0.2446548915 -0.0416669145 -0.1883324523
-0.0782139605 0.2779715096 -0.4938044407
0.0101059057 0.3333353156 -0.2096845513
0.2277973124 0.1666676578 0.4405172301
-0.0923840106 -0.3333353156 0.0651064684
0.0572558507 -0.0952849972 -0.1109503418
0.1237109214 -0.1076541768 -0.0168136485
0.3080863864 -0.0199462393 0.2137577302
-0.4952600977 0.2513441184 -0.0685409949
-0.3145937515 0.3333353156 -0.2480269610
0.3672873939 -0.0112989706 -0.0756453851
-0.3082232380 0.0445617045 -0.2134866997
0.4025460788 0.3281576271 0.2965192010
0.0630008124 0.3333353156 0.3642871694
-0.2739540712 -0.0284519219 -0.2560361288
0.2789587231 0.3255083656 0.4149195854
0.3500401237 0.2984433800 -0.3569649235
-0.1136540261 -0.1662990171 -0.0518681361
-0.3792638413 0.1666676578 0.1568449461
-0.4994770046 0.1815630335 -0.0221638722
-0.4991648740 0.2739304471 -0.0285414441
-0.0425320470 0.3333353156 0.1612065405
-0.3686874600 0.1666676578 0.2297024979
-0.0739203597 -0.3141340107 0.1005481593
0.1483236306 0.1666676578 -0.3974358848
-0.0391017639 0.1095360433 -0.3728921846
0.2400119886 0.2155401951 0.4386031088
-0.2969091126 0.0893960676 -0.2289623185
-0.2809247258 0.3333353156 0.3293206941
-0.2863061289 -0.0152067211 0.2421238880
-0.1078321968 -0.2996132542 0.0629885180
0.3745586163 0.0733517547 0.0177148155
-0.1842220952 -0.0302099854 0.3265674113
0.3207014355 0.1699005500 -0.3835937235
0.0088551807 0.3333353156 0.1699572673
-0.1109719827 0.1666676578 0.4414063007
-0.0514899035 -0.0416669145 -0.1936248966
0.2045987267 -0.0416669145 0.2214087855
0.3634080011 0.3136589390 0.3433944662
0.2747290558 -0.0416669145 -0.1286287745
-0.1106983655 -0.1407269827 -0.0577857547
0.3641671760 0.0309825674 0.0892009990
0.1220193596 -0.2306676195 -0.0268904640
-0.0808450548 0.1196322858 -0.3661279509
0.4583363531 0.2481074566 -0.1997176632
0.1983844448 -0.0416669145 0.3035665550
0.0885273318 -0.0785622280 -0.0879928929
0.3442485762 -0.0039936283 -0.1486477729
-0.3253816904 0.2449999928 -0.3796366072
0.2208206142 0.3002526361 0.4485490923
-0.0636642162 0.3333353156 0.4570777055
-0.4708154644 0.1791499601 0.1683184143
0.3690760865 0.1666676578 -0.2167465971
0.1221518134 -0.1174672973 0.0264353554
0.0248743218 0.1666676578 0.4602216264
0.2324051978 0.1200950873 0.2942911202
-0.0360563316 -0.1772328496 -0.1196302688
-0.1342335253 -0.0416669145 0.1344757195
0.3903266627 0.3333353156 0.2071015702
0.1223974103 0.0846477612 -0.3544300109
-0.1621447837 -0.0416669145 0.0866330051
0.1796903520 0.2462695855 -0.4665670118
0.0899687444 0.3333353156 -0.4809361305
0.2311596002 0.3333353156 -0.2762747081
0.3046029755 0.1666676578 -0.3947371848
0.1066341227 -0.1154197416 -0.0652065216
-0.2512826045 0.2179241004 -0.4322397771
-0.3575514448 0.1666676578 -0.3191452915
0.0015779453 0.1666676578 -0.4248166006
0.3546017575 0.3333353156 -0.0813495300
0.1361889845 0.2726525451 0.4810755002
-0.4305827026 0.3333353156 0.2498252217
0.1705391454 0.0578461987 -0.3339240536
-0.0908026493 -0.1590575874 0.0856775210
-0.1086857789 -0.2150208123 -0.0613752756
0.2551673654 0.2754922107 -0.4299271815
0.0571215760 -0.0416669145 -0.1778361051
0.3165466671 0.1747455031 -0.3870219126
0.1198496617 0.3333353156 0.3216149782
-0.1570474961 0.2519890754 -0.4746807854
-0.1267585424 0.0425720637 -0.3528773619
0.0975066339 -0.2163903766 -0.0780654070
0.3534494642 0.3333353156 0.0824721185
0.3685000927 0.1333982871 0.0693222233
-0.3326230980 0.3333353156 -0.3662035799
0.3537550409 0.1481107103 0.1242501746
0.3642853882 0.0231972390 -0.0888618700
0.2788898823 0.3333353156 -0.3657931047
-0.0633755576 0.3333353156 -0.1711250779
-0.2179092808 0.3333353156 0.1311626157
-0.3737276752 0.0751551581 -0.0307138028
0.4531351736 0.2952869591 -0.2113272853
-0.0412393380 0.3333353156 0.2785924717
-0.2279172286 0.0790188121 -0.2977614970
-0.0561953994 -0.0416669145 0.2064901139
-0.2818090340 0.1842649526 0.4129820762
0.2544663614 -0.0416669145 -0.2503433127
0.2600247229 0.3333353156 0.0602796857
-0.1679285794 0.1287456626 0.3352811384
0.3560002664 0.1666676578 -0.1645661184
0.0867639895 0.3333353156 -0.4806707197
0.2694469057 0.3333353156 -0.0751509386
0.3055067680 0.1666676578 -0.2746712265
-0.4921044541 0.2613740677 0.0884390279
-0.3766199663 0.2255107340 0.3288261569
-0.2341896585 0.2637175674 -0.4417509836
0.2717624000 0.3333353156 0.3369445049
0.1931012009 -0.0416669145 -0.1085755697
0.4347020570 0.1666676578 0.0067965974
0.0200401113 -0.0416669145 0.3190724202
0.1247400681 -0.1689356303 -0.0058506725
-0.4754168509 0.1666676578 -0.0462578687
-0.3821374732 0.1666676578 -0.2904036038
-0.3179683559 0.1379787407 -0.1987086618
0.3123291015 -0.0416669145 0.0362608307
-0.1898579389 0.3333353156 0.0040029147
0.4073107956 0.1666676578 0.2834301406
-0.1071231147 -0.2450064981 0.0643084806
-0.4988686001 0.2372960029 0.0334595192
-0.0309346324 -0.3333353156 -0.1079360901
0.0978839144 0.2158413187 -0.4902941550
-0.4962471398 0.2277372882 0.0609967485
-0.3149892306 0.0309294824 -0.2034365142
-0.4256381471 0.2337147942 -0.2623462736
-0.0534896906 0.1666676578 -0.4384948340
0.1155629749 0.2629039606 0.4864437829
-0.0792101388 -0.1301841926 -0.0965930928
-0.0772915745 -0.3333353156 0.0565839247
0.3575233830 0.0261027495 -0.1130362474
0.0609460577 0.3333353156 -0.1925975679
-0.0175539661 -0.0278516742 -0.3745303845
0.0161810162 -0.1336964895 0.1239124160
-0.0599390853 0.3333353156 -0.0148813352
-0.2869897258 0.1666676578 -0.3072272716
-0.3785314543 0.1666676578 0.0583725711
0.4684812555 0.3333353156 -0.1409021364
-0.3153307770 -0.0416669145 0.1563568977
0.2359260599 -0.0416669145 0.0603520509
-0.0167850183 0.1666676578 -0.4473939206
-0.3621793422 0.2757094578 0.3446866986
0.1867644235 0.0154439605 0.3251053671
-0.2346708824 0.2833675451 -0.4414783612
0.0292119602 0.3333353156 -0.2331794154
-0.1005060240 -0.3333353156 -0.0548623412
-0.0538654707 0.2849785205 0.4970319345
-0.3484613847 0.3333353156 0.2660297792
-0.4996903768 0.2674915384 0.0167351796
-0.2629610012 -0.0416669145 0.0440320676
0.3639020691 0.2310071422 0.3428610664
-0.3166582907 0.3293594422 -0.3869257692
0.0540290342 0.1252535394 -0.3710753596
0.4049552378 0.1666676578 -0.1539632972
-0.3807814154 0.3333353156 0.1648779021
-0.1036594011 -0.0416669145 0.2854781114
0.2965826084 0.1421637299 0.2294192197
0.0391903752 0.3333353156 0.0566415493
-0.2454684202 0.3333353156 -0.0041223530
-0.4861977923 0.2622671214 -0.1165919771
0.1778664672 0.3333353156 -0.1713768497
-0.2550893841 0.3333353156 -0.0854416983
0.3024903666 0.3333353156 -0.2091114192
-0.3838546476 0.1981344047 0.3203721819
0.0742278726 -0.0416669145 0.3660072225
0.2782927627 0.2846386219 0.4153705450
-0.3562913797 0.3333353156 0.2172026021
0.2913442795 0.2175257215 -0.4063299350
-0.0585631804 -0.0000912786 0.3703560353
-0.3619161541 0.3180667502 0.3449196496
0.3820074269 0.1666676578 0.3111463074
0.0072683301 0.2419216704 0.4999208701
-0.2101239672 0.3333353156 0.4246768465
-0.1374417758 -0.0416669145 0.2979936489
-0.1549169497 0.0504556206 -0.3414379567
0.4467976774 0.2302720114 0.2244225149
-0.2126786119 -0.0416669145 0.2570445570
0.0637578423 -0.0968103406 -0.1074139607
-0.1304682053 0.1666676578 -0.4393002587
0.1838479178 -0.0416669145 -0.0518101131
0.4516022377 0.3333353156 0.1740755509
-0.0415860876 0.3333353156 -0.1487603439
0.0418647160 0.3333353156 -0.2383525039
-0.4403459015 0.2025320934 -0.2368043438
-0.4711607377 0.3333353156 0.1484870323
0.2292042124 0.0001847996 0.2967285736
0.0854890431 0.3333353156 0.4919448968
0.0000311585 -0.2524940525 0.1248878425
-0.0076007165 0.0896065144 -0.3749137507
-0.4614338591 0.3333353156 -0.1410055954
-0.2172503567 0.0116931498 0.3056291238
0.0476476448 0.3333353156 0.3740720447
-0.0945679350 -0.3333353156 0.0469503971
0.0189039194 0.1666676578 -0.4131900959
-0.0235940547 0.1666676578 -0.4458715884
-0.1257012051 0.2926190750 0.4839167193
0.3585304065 0.0494933282 -0.1097053747
-0.1022308858 0.0941398308 -0.3607483396
0.3701650238 -0.0416669145 0.0499810500
-0.4364245462 0.1666676578 0.0435889194
-0.0973388081 0.3333353156 -0.1194356322
0.4921485414 0.1833988115 0.0881673738
0.0528221397 -0.3333353156 0.0347383408
-0.0925448617 0.1666676578 -0.3810554749
-0.4758549626 0.1729332951 -0.1534113126
0.4924046913 0.3276690831 -0.0866894027
0.0178365423 -0.2086521561 -0.1236638519
-0.3703627350 0.0066331484 0.0584039405
-0.1797280868 0.3333353156 -0.0880262748
-0.0083736240 -0.0416669145 0.2518331453
-0.3080078301 0.1666676578 -0.3411307393
0.4356987854 0.3150669341 -0.2452290649
0.4094919184 0.2096891161 -0.2868658220
-0.1911997424 0.3333353156 0.3796342838
-0.1454091710 0.3333353156 -0.2925148180
0.2425481755 -0.0416669145 -0.2028226261
0.0053640802 -0.3333353156 0.0323539715
-0.2578375505 0.3083184716 -0.4283866025
-0.1200247015 0.3333353156 -0.4560960775
0.4214920565 0.1666676578 0.1603241106
-0.2210304941 0.1675536635 -0.4484783526
0.0714710819 -0.0416669145 -0.1408713914
0.3029574663 0.1494427429 -0.2209186754
-0.3374318019 0.3333353156 -0.0011180460
0.4424733691 0.3333353156 0.0555534588
0.1921546841 0.2830846800 0.4615848092
-0.2983581956 0.2051440896 0.4012127601
-0.0673782641 0.0269650278 0.3688687343
0.3308445170 -0.0101437095 -0.1764097700
-0.0449928588 -0.0416669145 -0.2194882919
-0.0085985434 -0.0424507059 -0.1245159042
-0.3722636270 0.3333353156 -0.1368232822
-0.3316725193 0.0919457579 -0.1748426943
0.3275977611 0.1666676578 0.3748204254
-0.1075154712 -0.1288586385 0.0634355400
0.2058243608 0.1416845847 0.3134090771
0.4061652702 0.3333353156 -0.0846890954
0.1388861070 -0.0416669145 0.2754210770
0.1613418531 0.3333353156 0.3041334359
0.0745693235 0.3333353156 -0.1831170692
-0.4500110459 0.2937290235 -0.2178869144
-0.3734748705 0.1666676578 0.2394039251
0.3397383326 -0.0416669145 0.1375324786
-0.4952156911 0.3333353156 -0.0038381256
0.2067614381 -0.0416669145 -0.1994222940
-0.0711253109 0.2671857501 -0.4948959786
0.3628259995 0.1666676578 0.1423065724
0.3397573498 0.0599004328 0.1585635211
0.1001005935 0.2577867614 -0.4898551821
0.3750162281 0.1666676578 -0.0957012092
-0.0439456082 0.3333353156 -0.3987496847
0.1098837818 0.3210365546 0.4877406854
0.2596347677 -0.0416669145 0.0861351103
0.0393118598 0.3333353156 0.3705164633
-0.2825012374 -0.0416669145 0.1705006600
-0.3853154330 0.3333353156 -0.2181684664
0.3219092511 0.3333353156 -0.0821658814
-0.2322115250 0.3142811123 0.4427663743
-0.1376335276 -0.0416669145 0.1992751852
0.0491947885 0.3333353156 0.2573657096
-0.2778932532 0.3333353156 0.3592177288
-0.3748169035 -0.0212888584 0.0100066779
-0.1758734575 0.3333353156 0.4644024126
-0.2694687130 0.1014781915 -0.2607385101
-0.2218233539 0.1587378894 0.3023058045
-0.3777342337 0.3333353156 -0.2020711691
-0.2014036387 0.0948765337 0.3162448196
0.3809469731 0.1831463546 -0.3238462577
0.2789504037 0.3333353156 0.0796456504
-0.4165050528 0.1765420515 0.2766046673
0.3178469191 -0.0416669145 0.0862473277
-0.1915380542 0.3333353156 0.3441501529
-0.1103639483 -0.1121237890 -0.0585778306
0.2667013811 0.3333353156 -0.0983991913
0.4624237326 0.1666676578 0.0324734943
0.3526797206 0.2133436548 0.3544013457
0.1255957670 0.3333353156 0.4560668694
0.1637437753 0.3333353156 -0.3213268380
-0.0413878054 0.3333353156 0.1441979797
-0.1912988792 0.3333353156 0.4472597873
-0.2977717488 0.1666676578 -0.2634948341
0.2771909110 0.0638788333 0.2524915663
-0.3185325354 0.1666676578 0.2649320643
0.1885703259 0.1666676578 0.3823304779
0.1296108222 0.3261279907 -0.4829044980
-0.0647295129 -0.3333353156 -0.0884404381
-0.2597423156 0.0583979030 -0.2704594251
0.0444413300 0.1666676578 -0.4342276933
-0.0963051385 -0.1036682737 0.0795873998
0.0274052128 -0.0416669145 0.3509417807
0.3254677002 0.1666676578 0.2357056461
-0.1218928778 -0.0416669145 0.2507213919
0.1206406409 0.1666676578 0.4309441292
-0.0377047856 0.3259093669 -0.4985537160
-0.1301786112 0.3333353156 0.0273311199
-0.4503459074 0.1745810209 0.2171901719
-0.0179742655 -0.2167142108 0.1236321111
