-0.2842743693 0.1602224393 -0.2675735666
-0.2930789814 0.0155883528 -0.2570151427
-0.1352993677 0.1350263102 0.3410674938
0.1465438573 -0.0739182422 -0.1431481405
0.4707812226 -0.0636388953 0.0171770781
0.1756319873 0.0046130643 0.1320577000
-0.2715569187 0.1519204922 -0.0296172897
-0.3278266696 0.0892609901 -0.0388474558
0.0060175162 0.1154568326 0.1687720464
-0.0721531055 -0.0602212745 -0.3384936818
-0.0475099892 -0.1527193060 -0.2108676279
0.3120838568 0.1651011081 -0.0804963105
-0.2857040293 0.0755984334 -0.0350827328
-0.1475487592 -0.0889005974 -0.2999076799
-0.4480511519 0.1460167621 0.0560138109
-0.0025750014 -0.0889005974 -0.1324567063
0.3142147761 0.0119561430 0.3310727616
-0.3700282432 -0.0603414934 -0.1340857163
-0.1932643945 0.1651011081 0.0092662157
-0.3913111337 0.0688810699 -0.0895333646
0.1403123953 0.1122725887 0.3461831595
0.4416603407 -0.0889005974 0.0941390851
0.2427935611 0.0608523647 0.0043517747
-0.4582386823 0.0104879279 0.1231386499
0.4045050672 0.1056860785 -0.0902537874
0.3106333274 0.1651011081 0.0039921457
-0.2880799567 0.0119734687 -0.2631201857
0.2872694743 -0.0889005974 -0.0525039558
0.4897462609 -0.0573012810 0.0740103421
0.0080235803 0.1651011081 0.1976072944
0.1389591734 -0.0095763344 -0.1030364985
0.0382770814 0.1651011081 -0.2048557040
-0.4316133218 0.1594901558 0.0654221912
0.2440413919 -0.0660301253 -0.2113551476
0.4068882079 0.0939138048 -0.0873888253
0.4037713382 0.0585199734 -0.0911775886
-0.4815736263 0.1250127511 0.1862189616
-0.0495937265 -0.0354292619 0.3470967797
-0.2294680731 0.0212484929 -0.3180319268
0.3924569180 -0.0409332766 0.3137838189
0.2152669183 0.1651011081 0.2859018784
0.0234023462 0.1543722513 0.1713774776
-0.3907478063 0.0798132202 -0.0907720590
0.4933587794 0.0839834070 0.2125867581
-0.0268024329 0.0533117322 -0.3201959632
-0.1078199368 0.1651011081 0.2981164206
-0.0015688732 0.1651011081 -0.1640276982
-0.0162589243 0.1001944309 -0.0765129298
-0.1430878374 0.1651011081 -0.3419506740
0.1116962454 0.1651011081 0.3021588254
0.3647838083 0.1486440215 0.3214833082
0.4891633889 0.1399553325 0.2270172402
0.2338642114 -0.0866752588 -0.2102564472
0.2324095611 0.0191184232 -0.0993775107
0.1582728983 -0.0889005974 0.2336249177
-0.1007903057 0.1651011081 0.2362280865
0.2494952822 -0.0889005974 -0.0769786915
0.2416676914 0.0724025752 -0.2114725548
-0.2871950023 -0.0437953900 -0.2641512293
-0.1747749254 0.0948132937 0.0551980363
0.2426895938 0.1100863489 -0.0181467751
0.4683805363 0.0055178247 0.0116258417
0.4352353137 0.1651011081 0.0014936212
0.4662831120 0.1526423662 0.2689526700
-0.0749419898 0.0333761310 0.1230576588
0.3672397680 -0.0889005974 0.1574817691
0.2387808615 -0.0889005974 0.2097930703
0.0988799411 -0.0889005974 0.1946447238
0.2277851549 0.1630790391 -0.1242527765
-0.2374290729 0.1392359388 -0.0090161595
-0.3692714544 0.0799183346 -0.0186066980
-0.1105784570 0.1363420548 -0.0097300439
-0.1680562268 0.1228592732 0.3022681788
-0.1397083876 -0.0462029948 0.1115068635
0.3488524771 0.1651011081 0.2971738508
-0.3980154396 0.0195678506 -0.0744313279
0.3083426229 0.1651011081 0.0163494595
-0.4459363784 0.1060944744 0.0946966832
0.3243777118 0.1651011081 -0.1105591452
0.2426654969 -0.0478210852 -0.0191078966
-0.3034491881 0.1651011081 -0.1484538844
0.2356407175 0.1179848255 -0.0808538331
-0.1591751461 -0.1558964473 -0.2233445327
-0.2609766625 -0.0889005974 -0.2669638118
0.1446710333 0.1651011081 0.2324335551
-0.0879632581 0.1651011081 -0.0898179268
0.4994979462 0.0179943505 0.1373502294
-0.3000137439 0.0580492022 -0.0385837771
-0.1056502044 -0.1074709796 -0.1531204283
-0.2775954417 -0.0889005974 -0.2329393918
-0.0265255204 -0.1651011081 -0.1324547386
0.1399858348 0.0904756857 0.3461964876
0.1411591375 0.0864534317 0.1516723048
0.3235509856 0.0298255769 -0.1691062346
0.1473815796 0.0693999579 -0.1401689751
-0.1121575867 0.0268765057 0.3434040127
-0.0690488475 0.1413298856 0.3462622324
-0.4785209453 -0.0889005974 0.1694488787
-0.3823667443 0.0733239083 -0.0065650370
0.0458877024 -0.0889005974 -0.1138914720
0.2273652712 -0.0628907739 -0.1265256315
-0.3112904877 0.1651011081 -0.0754828928
-0.4749435324 0.0873612270 0.1669901784
0.0348860365 -0.0539946147 -0.2816248851
0.2992317973 -0.0889005974 -0.0612594139
0.2205897990 -0.0745216373 -0.1706424767
-0.2525241835 0.1194118366 -0.2999276909
0.4232739068 -0.0426367111 -0.0663277966
-0.1473251333 0.1394258335 0.2864964132
0.2580659735 -0.0889005974 -0.1744268856
0.2001099593 0.1651011081 0.1695249156
-0.0869694390 0.0510698963 0.1074024950
0.4830636894 -0.0889005974 0.2062409727
0.3224611376 -0.0889005974 -0.0526522880
-0.0585088909 0.1651011081 -0.2748634815
-0.1115402592 0.0552956668 0.2242136688
-0.4843300195 0.0669005479 0.1758637310
-0.3823993883 0.0202477977 -0.1088035291
-0.4946445165 -0.0732347617 0.2166816490
0.4553975089 0.1651011081 0.1465254129
-0.2301855643 -0.0889005974 -0.1200531464
-0.1341231038 0.1651011081 -0.0681944209
0.2128503336 -0.0889005974 0.3150180635
-0.1446474590 0.1028126084 0.2842228821
-0.1193073319 0.1651011081 -0.2146462750
0.2257959545 -0.0142738019 -0.2058966203
-0.1477677953 -0.0889005974 0.3285836732
-0.0839359454 -0.0889005974 -0.1176382967
-0.4472366536 0.1336941697 0.0536002471
-0.1640837351 -0.0588488674 0.0702025114
0.0032480838 0.1651011081 -0.2809115070
-0.2689158510 -0.0889005974 -0.2294256714
-0.0841478011 -0.0889005974 -0.2970461701
0.2310967631 0.0079786019 0.0650416483
0.2114945135 -0.0889005974 0.1194468818
-0.1697351647 -0.0452993950 0.3034344542
0.3178246885 0.1642416620 0.3305418063
0.3024346552 -0.0889005974 -0.1533773624
-0.4659544615 -0.0019786247 0.1426114809
-0.1593893989 0.0423184029 -0.3466270257
-0.2602343486 0.1498189376 -0.0239297090
0.4032774288 -0.0889005974 0.2729968841
-0.1501565943 0.0560976505 0.0924275659
-0.1128177647 0.0296261720 0.0006374286
0.3913380114 -0.0889005974 -0.0787275182
-0.2345902307 0.1392493613 -0.3144005779
0.2231912027 -0.0663406233 -0.1502310037
-0.1358699890 0.1651011081 -0.2264082846
0.0919026000 0.1651011081 -0.1729957148
-0.0162172763 0.1651011081 -0.1884936084
-0.1589955475 -0.1326864785 -0.2226920706
0.4832180698 0.1123739937 0.0508774154
0.3696877428 0.1435245317 -0.1282426243
0.0396448154 0.1572447203 -0.0818604919
-0.4002799391 0.0261376969 -0.0692319963
0.3319230138 0.1651011081 0.3176427824
0.4025255362 -0.0889005974 0.3091827457
0.3297805810 -0.0889005974 0.3089222922
-0.2223715511 -0.0889005974 -0.1871196741
0.0484848826 0.0705228915 0.3484294898
-0.0574439483 0.1204402906 0.1399216415
-0.0191868830 -0.0724363297 -0.3163030279
0.3570924524 0.1651011081 0.3089769999
-0.4524406331 -0.0701410659 0.1093675168
-0.0734134419 0.1589335296 -0.3388681517
0.0884401241 0.0304992107 -0.0860359039
0.2612205091 -0.0889005974 0.0230022904
0.0924235550 0.0614988012 0.1676145522
-0.0551849613 -0.0311760419 0.1417844729
0.4752518680 0.1651011081 0.0493299080
0.1271638615 0.1135760133 0.1574973617
-0.2380179252 -0.0143013428 -0.3117853691
-0.2849576393 0.0469643456 -0.2667832906
-0.1619073648 -0.0580162661 0.3370483328
-0.4108744306 0.1211127794 -0.0440154453
-0.4792969422 -0.0889005974 0.1780147056
-0.0544020320 -0.0889005974 0.2549668346
-0.3933622730 0.0960637534 -0.0849605567
-0.0261486140 0.1651011081 -0.2432157346
0.2275493581 0.1496584040 0.3408438043
-0.4809637471 -0.0786776223 0.1634305975
0.4996498602 0.1329140597 0.1682343240
-0.0043795219 -0.0889005974 -0.1961853285
-0.4547545613 0.1316095859 0.1147756771
0.3842052281 0.1208991509 0.3162911807
0.2322513092 -0.0686901350 -0.1002300539
0.2944765984 0.1651011081 -0.0267202318
-0.1474501609 -0.1073983277 -0.2527640526
0.1240527720 -0.0889005974 -0.1216871898
-0.0934821271 -0.1295860399 -0.2381754983
0.0714442162 -0.0889005974 0.3280320800
0.4907987614 0.1651011081 0.1790913845
-0.3670852914 0.0362158961 -0.1398775380
-0.2750034092 -0.0238759685 -0.2779397991
-0.3747216971 0.1190514052 -0.1246941673
0.3880902990 -0.0599601797 0.3151435568
-0.3890880509 0.0092507942 -0.0944064510
0.2314467476 -0.0294511131 -0.1046360393
-0.4041651972 -0.0112727198 -0.0601391767
-0.2753360348 0.0209936234 -0.2775751236
-0.1914683826 0.0238265366 0.3252769911
0.0353366862 0.1283828366 -0.2812933734
0.4412439384 0.1282850002 0.2911320590
0.1182878237 0.0094217528 0.3470133246
0.3033069265 0.1651011081 0.0308919082
0.2676112111 -0.0668476224 -0.2042959702
0.1400877826 0.1138836450 -0.1610537554
0.3064033112 -0.0889005974 0.0137155730
-0.0673311603 0.1482921641 -0.0625024208
-0.1945662446 0.1651011081 -0.0280070859
0.0546825048 0.1042208577 0.1723946763
0.2324079032 0.0166268043 0.3404430482
0.1205194579 0.0697914199 0.3469371064
-0.1973235317 -0.0889005974 -0.0005948742
0.1124420861 -0.0154068948 -0.0904300920
0.4930863988 -0.0780935584 0.0887536397
0.1455161623 -0.0353305297 -0.1470517487
0.3432861191 0.1280802657 0.3261061667
-0.3316889467 0.0028757195 -0.2024798127
0.2177789951 0.1651011081 0.3349189408
-0.4831792504 -0.0424580122 0.1715618370
0.1470640883 0.1180744422 0.1489378360
0.3765525067 0.1651011081 -0.0783026841
0.4549290650 0.1046870509 0.2805126579
-0.2807435428 0.1651011081 -0.0598685725
0.4701221594 0.0743635538 0.0156502400
0.2157963397 -0.0348907165 0.0927150335
-0.2103706202 0.1651011081 -0.1099679921
0.1224341168 -0.0889005974 -0.1506129768
-0.0918996158 -0.0889005974 -0.0859127530
0.2960335506 0.1651011081 0.2906244087
0.4921168952 -0.0220886947 0.2174181348
0.4592167652 -0.0889005974 0.2627887096
-0.2961463546 -0.0889005974 -0.1284448437
0.4841718213 0.0839118126 0.0540048937
-0.0140982093 -0.0889005974 0.2921750723
-0.4626604653 0.0980067082 0.1341245847
-0.0507886542 0.0267910657 0.3470523770
-0.0429899010 0.1651011081 -0.1206159122
-0.0548329476 0.1651011081 -0.2664406872
-0.3960355523 0.1392364286 -0.0789551958
-0.4218964764 0.1587120697 -0.0163227053
-0.3859813353 0.1591965505 -0.1011547743
0.3902965595 0.1651011081 0.1134359253
-0.4731394867 0.0323947237 0.1358186366
-0.1504931529 0.0202968424 0.2891886684
-0.0264682876 -0.0889005974 -0.2766816027
-0.2322998109 -0.0801940688 -0.3160539347
0.3280338343 -0.0889005974 -0.1519430660
-0.0333947292 0.1651011081 0.3353516612
-0.0618077965 -0.0889005974 -0.0702578959
-0.1282438593 0.1651011081 0.0154151028
0.2875700409 0.0469043840 0.3347472178
0.1264429696 0.1308220037 -0.1856925429
0.2532606460 -0.0211772356 -0.2095907818
0.3457333298 0.1651011081 0.2532389962
0.2842568054 0.0830728916 0.3351458269
0.2680802563 0.1651011081 0.1059822556
0.3903380115 0.1651011081 0.0048264830
0.2951835908 0.0072919341 0.3337750334
0.0054823996 0.1651011081 -0.1614959531
-0.1133914079 0.1315439653 0.0364414484
-0.2156764348 -0.0123323215 -0.3267382365
0.2684268052 0.0239109719 0.3369593965
0.0791577506 -0.0280333091 0.1700138916
-0.4592167831 -0.0477315042 0.0900888507
-0.2107538375 0.0539912526 -0.3294924486
-0.1851463138 -0.0889005974 0.0289667889
-0.4893487535 0.1439197584 0.1951476475
0.0086852116 0.0393752168 -0.0794702180
-0.2301220444 0.1622981520 -0.0033893630
-0.1258199986 0.0864448540 0.2628865334
0.0901293488 0.1508048149 -0.2318087261
0.2408216432 -0.0331325262 -0.0434363408
0.4888290169 0.1393492143 0.0704704326
-0.1277278363 0.0969480325 0.1378047229
0.0837441369 -0.0487235147 -0.2385181607
-0.2130489546 0.0981108360 0.0116859124
-0.1656513841 -0.0136395213 0.0679308736
0.2528000225 0.1651011081 0.0127051954
0.2372681274 0.1114506958 0.3400225508
-0.1117787224 0.0000724895 0.0469572256
0.4450959557 -0.0882646048 0.2883132120
-0.1153387233 0.0875329555 0.1765761358
0.4933509024 -0.0069766057 0.2125944278
-0.3436915615 0.1420764193 -0.0344017607
0.4077176173 -0.0889005974 0.2576597046
0.0192860387 0.0678789537 -0.0803784951
0.0030618220 -0.0889005974 -0.0908222394
0.1484220959 -0.0844764862 -0.1337178280
0.2938667327 0.1651011081 -0.0925667888
0.0752752151 -0.0347938487 -0.2469794187
-0.4083236840 -0.0627482294 0.0260290443
-0.3189133317 0.1651011081 -0.2121071284
0.0982264158 -0.0889005974 -0.1884860861
-0.1402951617 -0.0889005974 -0.0024260253
-0.0854487343 0.1412012519 -0.0508789771
0.3702678419 0.1651011081 0.0615411682
0.4405335436 -0.0889005974 0.2282703560
0.0535661093 0.1376331104 0.1723826546
0.3389255387 0.1392724879 -0.1565501771
0.2264706591 -0.0889005974 0.3065540600
-0.4291101342 0.1113472868 0.0606978473
0.2063870214 0.0167180214 0.1045669881
-0.1361096191 -0.0889005974 -0.2655730178
-0.1420418705 0.1414175267 -0.3483220353
0.2422811710 -0.0300879806 0.3395754254
0.4270922012 0.0116715815 -0.0610395840
-0.2832729276 0.1204030098 -0.0342682966
0.2531039027 0.1651011081 0.2044728164
-0.1134024686 -0.0616994700 0.1858952621
0.1928390910 -0.0395704455 0.1183235765
-0.1195395880 0.0982329538 0.1608474387
0.2405323090 0.1219069691 0.0298887962
-0.4908311081 0.0406663937 0.2148770850
0.4236455419 0.1651011081 0.2346169858
-0.1301536916 0.1651011081 -0.2631970046
-0.1894690775 -0.0889005974 -0.0960439195
-0.1208233822 0.0430178632 0.2548786758
0.3023932948 0.1651011081 -0.1288856490
0.1481418747 -0.0660706958 -0.1364631456
-0.2741714567 0.1040578961 -0.2788289068
-0.4205100912 0.0026400225 -0.0198885126
-0.0641950835 -0.0889005974 0.2419490174
0.0313039243 0.0530714112 -0.2843224118
0.2326385814 0.0805196152 -0.0980581312
-0.0366619962 0.0438572844 -0.0727255947
-0.1352712360 0.0497677569 0.2749373246
0.3635232634 -0.0889005974 -0.0200335358
-0.4954073388 -0.0312916292 0.2297477207
0.2305035123 -0.0806611023 0.0662408405
-0.4517948679 0.0656089610 0.0672144582
-0.4397624369 0.1085184732 0.0320015527
0.2378664854 -0.0631677786 -0.0666342177
0.2132264719 -0.0889005974 0.1110664136
0.2496245925 -0.0889005974 0.0573555960
-0.1895883117 -0.0270713828 0.0366055290
-0.2134341255 0.1651011081 -0.1502975460
-0.1563337539 0.0526868813 0.2938200655
0.2178811978 0.0267458474 0.3416159039
-0.3440018507 0.0318282664 -0.1821072938
0.2751837212 -0.0889005974 0.0746570317
0.2518259119 0.1651011081 0.0260704693
0.2779526288 -0.0889005974 0.1311854354
0.0838748376 -0.0889005974 -0.2029695525
-0.4951729261 0.0969435202 0.2289779405
-0.0336815467 0.1522142904 -0.3234922534
0.3634595763 0.0108670398 -0.1343102906
0.4523097013 0.0653575419 0.2827940424
-0.1624029427 0.0247172739 0.0727375046
-0.1020565887 -0.0446242772 0.0790542837
0.2139594948 0.0820948361 0.3419141610
-0.4406429740 0.0813031532 0.0345253427
-0.4862472072 0.0827264243 0.2004234176
-0.1177371683 0.0890115345 -0.3476555391
0.2479300115 -0.0889005974 -0.1681167562
-0.1440806678 -0.0234109305 0.3399594462
-0.1110118724 0.0299457023 -0.0080829753
0.1482552083 0.1248643077 -0.1184048174
0.0251063890 0.1573320878 0.3484877203
0.3209737521 -0.0889005974 0.2411627388
0.1208774329 -0.0192593911 0.3469257808
-0.3444686456 -0.0284857047 -0.0340756446
0.1150485289 0.1102873671 -0.2021240501
-0.0537737410 0.1651011081 0.2036817383
0.4055781117 -0.0024624288 0.3091347604
0.3243391392 0.1651011081 0.3132850607
0.4859473625 0.1651011081 0.1635181778
0.4772673130 0.0392527270 0.0335888960
-0.2549196509 0.0641048949 -0.2977521643
-0.0980725520 0.0871956543 0.0880582846
-0.2919423031 0.0818077601 -0.0368473350
0.3718272202 -0.0352882058 0.3197284565
-0.2892020533 0.1651011081 -0.1837800524
0.4648078883 0.1651011081 0.0589912182
-0.2928542116 -0.0889005974 -0.0631499459
-0.1128984310 -0.1651011081 -0.2291094721
-0.1113124810 -0.0503593084 0.2231401755
0.3003333846 0.1388358413 -0.1859359217
-0.2487567191 -0.0889005974 -0.2758969442
-0.0474230782 0.1651011081 0.2918100486
-0.1606502761 -0.1497774445 -0.2337688038
0.3454790022 -0.0889005974 -0.0205975070
0.4403481914 0.0919511811 0.2916436823
-0.0809852507 0.1460514860 -0.3409954721
-0.1222553174 0.0413997861 0.1524567610
-0.3331074578 0.0819774693 -0.2001842974
-0.4877948490 0.1486307047 0.2053038085
-0.0644921529 0.1550849416 0.1338194729
0.2853454997 -0.0889005974 0.0509715746
-0.1069767067 0.1158171367 0.0659061775
-0.0015598555 -0.0521032921 -0.0784156392
0.0549417474 0.0543847109 0.1723216415
-0.2874610413 0.0543063601 -0.2638098124
0.2118542771 -0.0889005974 0.3183353124
-0.4937772240 -0.0548066453 0.2130244765
-0.4957730027 0.0921949057 0.2215751175
0.2428771649 0.1436265511 -0.0132316131
-0.1134705403 -0.0589765603 0.0358079174
0.0761650763 0.0243889590 -0.0846780464
0.2358865751 0.1235258230 -0.0793829245
0.1581610062 0.1651011081 0.2577397361
-0.0496593348 0.0253489759 0.3470952989
-0.0347540023 0.1306972688 0.1547137107
0.1456082422 0.0646757685 0.1496190560
-0.0337358812 0.1651011081 -0.2535489195
-0.4284732730 0.0429989684 0.0595529126
-0.3688874463 0.1651011081 -0.0724497379
-0.0405422594 0.1651011081 -0.1162553060
-0.3271805580 -0.0731198956 -0.2095500061
-0.0839195496 -0.0889005974 0.2774019724
-0.1670007486 0.1063030968 0.0659904320
-0.0381402804 0.1651011081 -0.2484876567
0.0417970889 0.0826297027 0.1725298061
0.4678013138 0.0446005014 0.0103056339
0.2561558391 -0.0889005974 -0.1519823916
-0.2581452330 0.1651011081 -0.1920805958
-0.4614467680 -0.0771994213 0.0971401843
-0.3864184246 -0.0825264877 -0.1002167093
0.1222268839 -0.0889005974 0.2023885898
0.4911116687 0.0576914475 0.2208490354
-0.0909074935 -0.0351866496 0.1012632372
-0.2246667462 -0.0146485161 0.0012345763
-0.0615919434 0.1651011081 -0.1919295484
0.0836596926 0.0265594288 0.3479488842
-0.0360629107 -0.1651011081 -0.1809979701
0.3176441181 -0.0889005974 0.2355488103
-0.3358549859 0.1651011081 -0.1630484510
-0.4124916200 0.1506634987 0.0324238951
-0.1226099330 0.1651011081 -0.1167035552
0.2575132562 -0.0889005974 0.0078636276
-0.4758086776 0.0099607093 0.1450941487
-0.2203965871 -0.0458552448 -0.3239365910
0.0316834286 0.0649507310 0.1721468932
-0.1212899337 0.0241794676 -0.3479439364
-0.4702670296 0.0497488946 0.1541036064
0.4418942569 0.1651011081 0.1907615849
0.0842852137 0.0012118986 -0.2379716814
0.2472321150 0.1651011081 0.2687422540
0.2075529019 0.1624100832 0.1031366659
-0.0448208872 -0.0889005974 0.1514064469
0.1447825129 -0.0793813117 -0.1493282629
0.0472862090 -0.0696213470 -0.0823836163
0.1198425190 -0.0281000649 0.1601163271
0.4199169869 0.0322825010 0.3030517553
-0.4059706150 0.1109234262 -0.0558518272
-0.4424038954 0.1651011081 0.0689041018
0.4956930532 -0.0889005974 0.1164106658
0.3687307041 -0.0889005974 0.3008085015
0.0963928779 0.0827279977 -0.0872158295
-0.4451801596 0.1203551940 0.0930575683
0.0591031786 0.0936687731 -0.0832338550
0.2425079132 0.0642291338 -0.0219426396
0.1603894328 -0.0889005974 0.1916313508
0.2421900854 0.1651011081 0.0331760147
-0.2677543872 -0.0889005974 -0.0559853730
0.1430128015 0.0886523358 -0.1072126630
-0.4813193003 0.1109204324 0.1854570838
0.4082917440 -0.0635858977 0.3080670391
0.0203274560 -0.0889005974 -0.2896032773
0.0268962936 0.1183237878 -0.2875565073
0.2173033036 -0.0889005974 0.1949236959
0.4190369402 0.1651011081 0.0264777681
-0.0655917851 -0.0889005974 -0.1155753848
-0.1291694887 -0.0889005974 -0.1519300490
0.2299705048 -0.0723100876 -0.1125447656
0.3219188244 0.1162327452 -0.1703893940
0.3839783206 0.1651011081 0.1676306772
-0.0673628495 -0.0889005974 0.3219803546
-0.2707090953 -0.0889005974 -0.1752563956
0.2411454102 -0.0235973608 -0.0401153421
-0.1711541206 -0.0738287471 0.0601617379
-0.1767768519 0.0890933603 0.3334711939
0.3242335317 0.1651011081 0.1400010597
-0.4913285592 0.1554035020 0.2029760095
-0.3412537529 0.1399838058 -0.1867997124
-0.2311800207 -0.0633019178 -0.3168479415
0.0915287030 0.1080303482 -0.0864748429
0.3923456399 -0.0889005974 0.2635395253
0.2258025369 0.1237472115 -0.1350379331
-0.4006513029 0.1002200810 0.0152080358
0.2316031048 0.1651011081 0.3025955092
0.2842110639 0.0935609331 0.3351519573
0.2913593836 0.1029079420 0.3342704688
-0.1143825418 -0.0783437282 0.0221257242
-0.0245098135 -0.1102805323 -0.1933258841
-0.0304673791 -0.0577552961 0.1568894522
0.3756428234 0.1047935511 -0.1222440041
-0.0833120225 -0.0889005974 -0.1258564252
0.2473039096 -0.0889005974 0.0332106456
0.0681347848 0.1046990625 0.3482188600
-0.3405266203 0.0367224932 -0.1880286763
0.4392245607 -0.0889005974 0.0238039832
0.4960320971 0.0487869448 0.2000963057
0.1372848016 -0.0667851114 -0.1016913436
-0.4348153924 0.1132581503 0.0181756640
0.0261736750 -0.0503436398 0.3484864747
-0.1338213535 -0.0794858026 0.1237279078
0.1013181462 -0.0761566626 0.3475270254
-0.2068369641 0.1651011081 -0.0418157806
-0.2316780985 0.1651011081 -0.0513748298
-0.4687943243 0.0552445523 0.1501340290
-0.4946308822 0.0760542859 0.2166334470
0.1916476351 -0.0889005974 0.1677730893
0.0164463526 0.0600086956 -0.2948411400
-0.1850333735 0.1651011081 -0.2189437312
-0.1052409301 0.0139490809 -0.0247134318
-0.1576176264 0.1651011081 -0.1776015833
-0.0415936799 -0.0044596587 0.3473670623
-0.0186441440 -0.0295660307 -0.0761662728
-0.0723346390 0.1651011081 -0.1239077035
-0.4832804340 0.1307833834 0.1719549825
-0.0616383616 0.1566266266 0.1364219672
-0.2062310580 0.1651011081 -0.0968896637
0.4453899644 0.0751769373 -0.0329711864
-0.0461209964 -0.0889005974 0.2049466880
0.3415407077 -0.0889005974 0.0615948562
-0.1700807708 0.0376319332 -0.3447355318
-0.0603196987 -0.0889005974 -0.2527679502
-0.0097622327 -0.0878359182 0.1647753816
0.4695731998 0.1047592024 0.0143407936
-0.4230867526 0.1121228217 0.0498639311
0.3531473192 0.0341274735 -0.1440106078
0.0745620271 0.1651011081 0.3304611027
-0.0419545005 -0.0024450822 0.1507202683
0.4641848972 -0.0673888245 0.0024441096
-0.1662798116 0.1219630283 0.3361366077
-0.1170017711 -0.1368329403 -0.1614025201
-0.3287898288 0.1352720571 -0.2070657821
-0.3839969539 0.0884628664 -0.1054066491
0.2426500249 -0.0865414436 0.0077499978
-0.0191821131 -0.1089441871 -0.1295563059
0.4741946344 0.0886949046 0.0255912352
-0.0451962950 -0.0299434093 -0.0705671039
0.4064885020 0.1651011081 0.2753929111
0.1289898748 -0.0127190597 -0.1816965154
-0.4751469988 0.0162842312 0.1675778717
-0.3410492603 0.0327360510 -0.0353194328
0.2593283604 0.1651011081 -0.1317964035
-0.4320048336 -0.0679699627 0.0661945003
0.1538006154 0.0509764896 0.3455788835
0.1195801199 0.0840298874 -0.0925466287
0.1309850095 -0.0514668393 0.3465599960
0.3295350123 0.1651011081 -0.0197364018
-0.0698709757 0.1651011081 -0.1649063640
0.3796030578 0.1651011081 0.2080790748
0.0835144986 0.0943535224 -0.2387198240
-0.0379414246 0.0624118570 -0.3254702837
-0.0838779844 -0.0889005974 0.2661000891
-0.2007523304 -0.0853011453 0.0241145782
0.0966974050 -0.0889005974 -0.2034786562
-0.2835847423 0.1013548255 -0.2683809242
0.0125401180 0.1651011081 -0.2923159769
0.4984642409 -0.0833971428 0.1834878851
-0.4482718416 0.1051603216 0.0566484038
0.0711494936 -0.0889005974 -0.2399751383
0.1898630484 -0.0889005974 0.3335654330
0.2352902835 -0.0629333007 -0.0829172979
-0.0920542092 0.0641846767 -0.0445061557
0.2898755416 -0.0889005974 0.1442568511
0.0226355610 -0.0212137567 0.3484817774
-0.2283701117 -0.0889005974 -0.2961767722
0.2288479677 0.1619043997 0.0700775628
0.4649856000 0.1651011081 0.0940578804
0.3115911099 0.1651011081 0.0584381979
-0.1745453640 0.1651011081 -0.1759239601
0.0307267424 -0.0889005974 0.2623040326
0.1281958334 0.1651011081 0.2505355860
0.4935890330 -0.0889005974 0.2046631894
-0.2490061079 -0.0220430770 -0.3029987419
0.3945879765 -0.0082775241 -0.1018456191
0.1264032875 0.1126803128 0.1577869549
0.1165071105 0.1651011081 0.2097417741
-0.0025542634 0.1248300563 0.1668215449
-0.2315138360 -0.0846511298 -0.3166415904
-0.1498807534 -0.0889005974 0.0225671988
0.0205838955 0.0499928436 -0.2920091552
-0.1052847796 0.0706072813 0.0709212125
-0.0486873559 -0.0651473058 0.1464468549
-0.2594663005 -0.0889005974 -0.0247609259
-0.2430959810 -0.0218102802 -0.0131568764
0.2547451829 0.1351549868 -0.2091525227
-0.1495869689 -0.0279834405 0.2884974347
0.4864098951 0.1154135168 0.0614539227
-0.0383547265 -0.0889005974 -0.2567899138
0.3592303103 0.1651011081 0.2315279832
0.3745600677 -0.0889005974 0.2074585659
0.1959290284 0.0868579268 0.1153899171
0.0235060349 0.1651011081 -0.2274920028
0.4958528761 0.0644834679 0.1039276544
-0.1348291258 -0.0516325109 0.3411236319
-0.0354639826 -0.1651011081 -0.1593797583
-0.4936484619 -0.0549824469 0.2239954760
-0.4581755887 0.1622815167 0.0868202038
-0.2826121882 0.1651011081 -0.2609819654
0.2230212702 0.0052326484 -0.2009019203
-0.2491756578 -0.0889005974 -0.0196194191
-0.1715999879 0.0365026252 0.3349143264
-0.0804684117 0.1651011081 -0.1257526963
0.1648136195 -0.0208472939 0.3450301557
0.4990692480 0.1199662348 0.1311348053
-0.0542400766 -0.0889005974 -0.2473254829
0.4959009633 -0.0729995592 0.1042529674
-0.3072796355 0.1364132798 -0.2385543244
-0.3782502583 0.1651011081 -0.1159076838
0.3474638451 -0.0889005974 0.1344435545
-0.4031704606 0.0080334728 0.0186587875
0.0300681470 -0.0889005974 -0.2596966572
-0.0261173734 -0.0889005974 -0.2012939608
0.3402111495 -0.0889005974 0.2800222906
0.1454055846 -0.0029735888 -0.1474410356
0.1560618772 0.1531015731 0.1442291890
-0.4557816379 0.1651011081 0.0967796018
-0.3123283597 0.1651011081 -0.1832275763
-0.2507724087 -0.0889005974 -0.1291704195
-0.0382840136 0.1306730809 -0.0723418414
0.2391715022 -0.0390939366 0.0376391799
-0.4918780177 0.0768833407 0.2051922764
0.2573917212 0.1651011081 0.0537875983
-0.4666235930 -0.0464304099 0.1443431609
-0.1610690812 0.1651011081 -0.3324871754
0.1476735930 -0.0115706501 -0.1386579356
0.3285893532 -0.0889005974 0.0560059171
0.0394628944 -0.0889005974 0.3352602884
-0.0105773719 -0.0049945782 -0.3115718130
-0.4460636832 0.0969578313 0.0501617904
-0.2045781572 -0.0316094407 0.0200948678
0.0644904482 -0.0889005974 0.2938583062
0.3328874031 -0.0821004388 -0.1616277339
-0.1927956921 -0.0342547657 -0.3378643541
0.4145938625 0.1651011081 0.1717872388
0.4992271419 0.1206535815 0.1751642588
-0.0448039309 0.0827513823 -0.0706862491
-0.1434607853 0.0812731698 0.3400344910
-0.0180883536 -0.0889005974 0.2278850756
0.4405670331 -0.0628120919 -0.0408424680
0.2381316939 0.0599786297 0.0422995400
-0.0214984427 0.0765774044 0.1607659718
-0.1378134744 -0.0578074123 0.2776366960
0.2373878334 0.1651011081 0.1421380524
0.2363491898 0.0118883533 -0.2112662601
0.2590883137 0.1651011081 -0.0448634924
0.1773575782 -0.0527728334 0.1307915646
0.4050761041 0.1651011081 0.2516157911
-0.1023429649 -0.0889005974 -0.0725769559
-0.0353489000 0.1651011081 0.2041122871
-0.0599272863 0.1452970102 0.3466761485
-0.4561621131 0.1008026470 0.0805428389
-0.4309421956 -0.0889005974 0.0496043689
0.3149699128 0.1421323917 0.3309696327
0.2403224429 -0.0045758931 -0.0477315120
0.1573556155 0.0053053089 0.1434945845
0.3355057418 -0.0889005974 -0.1285963620
-0.4382111895 0.1409827459 0.0276415205
0.4149149865 -0.0889005974 -0.0702354098
0.0399056682 -0.0301003342 0.3484763566
0.1192895001 0.1651011081 0.2535000306
-0.0964811129 0.0736322943 -0.0393433442
-0.1998842622 -0.0889005974 -0.1253533441
0.0271465076 0.1651011081 0.2029081849
0.1389306075 -0.0889005974 0.1747522406
0.2329529215 0.0872049458 -0.0963653064
-0.4743269194 0.1127257736 0.1652660723
0.2641485724 0.1651011081 0.0099093643
0.1172521189 -0.0889005974 0.3157582268
-0.1052178079 -0.0889005974 0.1389084790
0.4679171734 0.1434146718 0.0105594681
0.3341385047 0.0637229851 -0.1605491622
-0.0395989142 -0.0089338345 -0.3262202127
-0.4292249164 0.1231826061 0.0029789229
0.2266456626 -0.0889005974 0.1841630175
-0.4158999607 -0.0889005974 -0.0225394292
-0.1314262037 0.1651011081 -0.3414448603
0.1043309849 0.0632975136 0.1647850071
-0.0587820848 0.1651011081 -0.1263445471
-0.0238041541 0.1165751025 -0.0752972220
0.2114780442 0.0722155195 0.0983670451
-0.0679478872 0.1038760225 0.3463164756
-0.1107410848 -0.0765975887 0.0519043713
-0.2365416755 -0.0889005974 -0.2346489610
0.0392417952 -0.0226937783 -0.0818341087
0.1075928937 0.0324624944 -0.0893412532
-0.4672533179 -0.0812043584 0.1159936859
-0.0897385518 -0.0889005974 0.1710533065
-0.0451462807 0.1651011081 0.1649986174
0.0100018314 0.1651011081 0.2417622118
0.0779364580 0.0235107776 0.1701695882
-0.1152905952 0.1236796975 0.2419490399
0.0080115667 -0.0795265902 0.3483910703
0.1613917830 0.1651011081 0.3332342741
0.4085908964 -0.0889005974 0.0731023773
-0.3890418935 -0.0772681923 -0.0945162681
0.2322771609 -0.0172116375 0.3404473944
-0.1045475361 0.1651011081 0.1302554968
0.1798952491 -0.0877308913 0.3441914982
0.2740017290 0.1651011081 -0.1596956834
0.4348892325 0.1598981954 0.2950840331
0.0533881593 0.1651011081 -0.1506942130
0.2238774845 -0.0038010231 -0.1460986065
-0.3118400609 -0.0276943448 -0.2322590967
-0.2307069513 0.1651011081 -0.2594684697
0.2710438432 0.1651011081 -0.0902925409
-0.0532632113 0.0108066374 0.1431988738
0.4359336808 0.1651011081 0.2496329889
-0.4236083398 -0.0505778346 0.0507786821
-0.0255759728 0.0274829287 0.1590829426
0.3090261257 0.1651011081 -0.1726707197
-0.4093662101 -0.0106474265 -0.0476758257
-0.0506075756 0.0142801378 -0.3308452604
-0.1201134840 -0.0889005974 0.3296255930
-0.3346495712 -0.0325009011 -0.0373906149
0.0016522377 -0.0477456281 0.1678639969
0.3885814849 0.0580847198 0.3149833532
0.1576049567 -0.0889005974 0.2756023398
0.0956426307 0.1651011081 0.3268245003
-0.2469916048 -0.0329685071 -0.0158274069
0.2324811763 0.1651011081 0.1336692510
0.2486622338 0.0190457521 -0.2106752001
-0.2647896348 -0.0889005974 -0.2844252168
-0.2143812623 0.1651011081 0.0040246269
0.2624395237 -0.0889005974 0.0375871252
0.0552774237 0.0962821483 -0.0829413471
-0.1225458602 0.0054024409 -0.3480802313
-0.2803031295 0.0995412493 -0.2721245090
-0.0835784324 -0.0790001086 0.3454722869
0.3190820277 0.1651011081 0.2570964041
0.2416287018 -0.0889005974 0.0536658972
-0.0792541299 -0.0889005974 0.2191563848
0.1409393850 0.1061475566 -0.1592458459
0.1452691668 -0.0889005974 0.2146869638
0.0645776533 -0.0844231285 -0.2570027943
0.4998474477 0.1633072963 0.1447748764
-0.0847086028 -0.0889005974 -0.2475888554
-0.0917462914 -0.0889005974 0.2331436728
0.2866917035 -0.0021340610 -0.1944840613
-0.0972437231 0.1651011081 -0.2292302888
0.3953826869 0.1651011081 0.2024629559
-0.4397848327 0.1457849513 0.0320731074
0.0953095321 0.0980241665 0.1669858585
0.2237952152 -0.0555126381 0.3411527635
-0.4950582589 0.1059740487 0.2184832314
-0.4935155163 0.1143593967 0.2119542106
0.2415934908 0.0664612785 -0.0353353345
-0.1230381683 -0.0220936379 0.3424065945
0.3771443920 0.1651011081 0.1635357255
-0.0714389330 -0.0889005974 0.2863320621
-0.1108810358 0.1029428586 0.2160451709
0.4841007918 -0.0094632432 0.2400349035
-0.2447979592 0.1137836412 -0.0143567482
-0.4828877967 0.1483721333 0.1902231047
-0.0760098345 0.0320915123 0.3458976519
0.4347054887 0.0951180622 -0.0499592801
-0.0642036387 -0.0889005974 0.2989597806
0.1148786181 -0.0245192840 -0.2023460856
-0.1532968537 0.0969117744 0.2914371984
-0.1113584096 0.1186230501 -0.0068366231
-0.0835380439 0.1613164650 0.1123430069
-0.3983658761 0.0939865455 -0.0736277456
0.0474332083 0.1240774480 -0.2717312570
-0.1086105103 0.0978786931 -0.3466384907
0.0979050775 -0.0382700647 -0.0874443372
-0.4269581555 0.0469291559 0.0567377788
-0.2800703110 -0.0889005974 -0.1077801204
0.4952310208 0.1613428893 0.2041099247
-0.0476751474 0.1651011081 0.2336882333
0.0455476653 0.1651011081 0.1929889939
0.0050828680 0.0618316493 0.3483578925
0.2205580334 -0.0889005974 -0.1900754279
0.4566279959 0.0502524993 -0.0128140720
-0.4096284147 -0.0134225747 0.0280144068
-0.4292885235 -0.0821127100 0.0610464827
0.1729492026 -0.0344918941 0.1338949690
-0.4624576975 -0.0704830997 0.1003916440
0.2686480765 0.1651011081 -0.0536616778
-0.3314497193 0.1651011081 -0.2000604962
0.4813941988 -0.0404603557 0.2458641559
0.4433067700 0.1651011081 0.1192443155
-0.0058782066 -0.0889005974 0.2314707349
-0.3833098472 0.1264306978 -0.1068702145
-0.3029366574 0.0627346423 -0.0390469495
0.4760634120 0.1356993366 0.0303605369
0.2774833145 0.0364321740 0.3359450996
0.0055425092 0.0788214499 -0.3019544091
0.4300941120 -0.0889005974 0.2505888691
0.0470194819 0.0296378858 -0.2720870022
0.3154302828 -0.0889005974 0.1573621609
0.0698855369 -0.0889005974 0.2636223648
0.4979960321 0.0859121707 0.1873155257
0.3919131795 -0.0889005974 -0.0751424737
-0.2043528591 0.1651011081 -0.2908941045
-0.1260202445 0.1356733106 0.1421003828
-0.4015911491 -0.0182996683 0.0165073239
0.1379967193 0.0826201356 -0.1653483594
-0.0520290460 0.0211634643 -0.0685364093
0.4990381076 -0.0591078543 0.1765440545
-0.2640693903 0.1239664637 -0.2891408639
-0.4341318715 0.0207780297 0.0703415489
0.1474377644 0.0034752341 -0.1156083781
0.1953634120 0.1108104355 0.3432324367
-0.3045237880 0.0183064243 -0.0392794256
0.3788690211 0.0896246979 -0.1189115275
-0.1799292930 0.0690696386 -0.3421818470
0.4459671918 0.0970734533 0.2878085388
-0.4127616597 0.0420695760 -0.0393829131
0.3753591489 0.0109877768 -0.1224862015
-0.0791099507 -0.0889005974 -0.2632314469
0.4881625558 0.0481747677 0.0679119526
-0.4152140792 0.1651011081 -0.0331679823
0.2296074222 0.1112570014 -0.2091924737
0.0429756302 -0.0889005974 -0.1429369012
-0.0277657761 0.1651011081 -0.2455535115
0.0347059941 0.0581385675 -0.2817584172
-0.1684876270 -0.0710221408 -0.3450802986
-0.0145257946 -0.0889005974 -0.2859565071
-0.4378094561 0.0270735169 0.0775968574
0.1884823623 0.1093202841 0.3436739666
-0.1127058276 -0.0889005974 0.1566746476
-0.2670393092 0.1651011081 -0.0457310203
-0.4446884661 -0.0134044397 0.0461393242
0.0188723501 0.0315211250 -0.0803486577
0.2359238544 0.0068765486 0.0509541127
0.1159439386 0.0490775234 0.3470920691
0.1606319307 0.1651011081 0.2450868460
-0.4196120315 -0.0390639115 -0.0221930818
-0.0844899288 -0.0889005974 -0.2843651610
-0.1565612378 -0.1410772579 -0.2149204923
0.0683706241 0.1651011081 -0.0848232259
0.4218456453 0.1522937610 -0.0682330155
-0.0350197266 0.1651011081 -0.0835374252
-0.0524353157 0.1651011081 -0.3279819939
0.2184317987 0.1651011081 0.1946940917
0.3842494148 0.0804191811 0.3163026443
0.2622409035 0.1651011081 0.2203749597
-0.3330212350 -0.0104311617 -0.2003427127
-0.3051664637 0.1651011081 -0.0413019000
0.4024670921 0.1391527236 0.3103230951
0.2305183823 -0.0145410680 0.3406022824
0.3710167240 0.1256050958 0.3199292824
0.2502423109 -0.0889005974 -0.1480086614
-0.3750353136 0.0746989613 -0.1240481653
0.1143017330 0.0983762858 -0.2031228577
0.2524500367 -0.0889005974 0.2580554022
0.2288166163 -0.0889005974 0.1376143939
-0.1271878808 0.1651011081 0.0643301722
0.4996641832 0.0879689473 0.1678913531
0.3090612486 0.1651011081 0.1206639161
0.4467180965 0.0074826168 0.2872202223
0.2275088562 -0.0561520582 -0.1257331458
0.2754478749 0.1651011081 0.1952230003
-0.0194663637 0.0772482376 0.1615111813
0.0292296676 -0.0889005974 -0.2632142867
-0.3297606875 0.1651011081 -0.1725504407
-0.1070940621 0.1483411463 -0.3464360002
0.2206306913 -0.0109362768 -0.1697193894
-0.4033187482 0.0310832503 -0.0621149455
-0.3721093305 -0.0889005974 -0.0162468994
-0.1543030856 0.0121883049 0.0854434749
0.3754174504 -0.0527055359 0.3187698186
-0.4538970002 0.0586057446 0.1127503140
0.0214293028 -0.0773830341 -0.0805546240
-0.1108673194 0.0612964021 0.2149906365
-0.4379032588 0.0816758613 0.0778393315
-0.2327720005 -0.0889005974 -0.2255812493
0.1335402089 0.1651011081 0.2659836708
0.4526637441 -0.0850540788 0.2824956483
0.1009572016 -0.0889005974 0.1690671956
0.2397945335 0.1544041050 -0.0523269502
-0.1883938791 0.0936516629 0.3284252720
0.0716884484 -0.0755065044 0.3481644861
0.4597563810 0.1651011081 0.1309203510
0.2374634203 0.1340466330 -0.0693727610
-0.1457965326 0.1396204979 0.3397062379
-0.1349383494 0.0651789825 0.1213744447
-0.1525241864 -0.0254348168 -0.3475764159
-0.4511853394 -0.0133212743 0.0653728401
-0.4279991700 -0.0808297045 0.0586623977
-0.0890538454 0.1651011081 -0.1402022737
0.0536210472 -0.0353304460 -0.2666246278
-0.1060679851 0.0034887582 0.0685852379
0.3259053185 -0.0077773885 -0.1672469577
-0.4475328425 0.0499782267 0.0544744354
0.0147640796 0.0878609373 0.1703510115
0.0031691297 0.1651011081 -0.2390715770
-0.1155130562 0.0276005591 0.1756533226
0.2330134251 0.1562094654 0.0599654795
0.4999469991 -0.0298599630 0.1488929543
-0.0260455915 0.0268612398 0.3478171010
0.0725668298 0.1651011081 0.3330727790
0.0761340628 0.1647825449 0.3480887252
0.2275961493 0.1326514786 -0.1252625513
-0.0511601363 -0.0812112347 0.1447029367
0.1373095372 0.1228466521 -0.1668894481
0.1703665963 0.0902564407 0.1356582841
-0.0771130659 0.1651011081 -0.1113853615
-0.4497719185 0.1564232384 0.0611161467
0.3502005094 -0.0889005974 -0.0241355661
-0.1944465792 0.1269109185 -0.3371963658
0.2411146764 0.1651011081 0.2115562319
-0.1871734774 0.1651011081 -0.0007620447
0.0523913207 0.1651011081 0.2343239476
-0.3884358975 0.0534875199 0.0001043870
-0.1363692105 -0.0889005974 0.0788187858
0.4476506807 -0.0889005974 0.2817597006
-0.0578839482 0.0644890386 0.3467692760
-0.0982014636 0.0791242042 -0.0369049508
0.1527610848 0.0769417341 0.1460385226
-0.1112700271 0.0097933549 0.2017685304
-0.2567618639 0.0892461571 -0.2960732900
0.0272061259 0.1651011081 0.1915393672
0.4934487551 0.0910468704 0.2121340486
-0.0413060531 0.0203257674 -0.0716150017
0.0752273051 -0.0422888469 -0.2470267505
-0.1765818256 0.0595023081 -0.3431323809
0.3286077393 -0.0562060715 0.3287692001
0.3623551164 -0.0889005974 0.3071468245
0.3969621027 -0.0889005974 0.1522473939
0.1081997281 -0.0054572496 -0.2109511850
-0.4599298470 0.0944850252 0.0923429141
-0.0477447691 -0.0282659903 0.1471254999
-0.0257377803 -0.1651011081 -0.1721489062
0.3773152448 0.1651011081 0.0995556832
0.2827350536 0.1651011081 0.1735989753
0.2200316165 0.1139106407 -0.1779288806
-0.1121885814 -0.0867916444 0.1936007125
0.2340905578 0.1651011081 -0.1080224100
0.3566048069 0.0314311268 -0.1408200688
-0.4208480777 -0.0033871878 -0.0190043809
-0.0259571174 0.1651011081 0.2316358907
-0.1122300709 -0.0056274707 0.1932968055
-0.4541387840 0.0489323080 0.0743326624
-0.4786932953 -0.0618732587 0.1552633650
-0.4912733614 0.1616827550 0.2163014863
0.3248289027 -0.0889005974 0.2428829567
0.2308307884 -0.0273386529 0.0656711656
-0.0932843655 0.1651011081 -0.1700846338
-0.1900507135 0.0049522474 0.3194014763
0.0623176204 0.1651011081 0.1975599900
-0.2868991364 -0.0360579729 -0.0354500681
0.3699312512 0.0313320069 -0.1280046125
0.4800235880 0.1154365913 0.0412281517
-0.0223947247 -0.1651011081 -0.1823175858
0.3028469224 -0.0290435790 0.3327415363
-0.2968419521 -0.0437938689 -0.0380021212
-0.1122458664 0.1651011081 -0.1509272281
0.2592807011 -0.0308167517 0.3379356933
-0.0183689010 -0.0582968741 0.1619351075
0.4892281656 0.0918577514 0.2267587041
0.2388987515 -0.0066556338 -0.0591652881
0.0372158534 0.1366682428 -0.0816952047
0.2517312210 -0.0007189851 0.3386824810
-0.1173759169 0.1651011081 -0.3029249226
0.2459672178 0.1651011081 0.0439930748
-0.1303178225 0.1210622978 0.1316240118
0.4432707800 -0.0889005974 0.1229767393
-0.3203601166 -0.0362193426 -0.2199460963
-0.0589170499 0.0455985339 0.1387042661
0.3009769442 0.1651011081 -0.1116670427
0.0491822927 -0.0889005974 0.2438095010
-0.0014313352 0.1651011081 0.2868146902
-0.2235977933 0.1650267293 0.0021535023
-0.4287924016 0.0141597901 0.0601501118
0.4997142117 0.1001895610 0.1415215521
-0.4759081761 0.0756627549 0.1697969032
-0.0684189595 -0.0889005974 0.1766063563
-0.4273167727 0.1343426797 0.0574160417
0.2583554144 -0.0889005974 0.0252095368
-0.0480278287 -0.0889005974 0.1887854078
-0.2565968766 -0.0260472466 -0.0218314428
-0.0674190878 0.0527031323 0.1309760841
-0.1830171029 -0.0889005974 -0.2871462411
0.3724672399 0.0657472497 0.3195318836
-0.4400217801 -0.0889005974 0.0540045471
-0.4418678322 0.0781950398 0.0859916498
-0.3269690305 -0.0889005974 -0.1527950985
-0.0467959604 -0.0764094327 -0.3292991960
0.3439244911 -0.0889005974 0.2840114021
-0.1292980118 -0.0889005974 -0.3370017767
-0.1262186138 -0.0260837986 0.1415519575
-0.1172792557 0.0217742770 0.1687986296
0.0134142035 -0.0010045653 -0.0798746618
-0.2711546873 -0.0539723993 -0.0293979398
-0.4691908738 -0.0821913401 0.1224361674
-0.1670120009 0.1202956007 -0.3453738974
0.2206649605 0.1476180800 -0.1929158193
-0.1623925914 0.1651011081 -0.0110623176
-0.1360284774 0.1651011081 0.3382536621
-0.4203141889 0.0805237826 -0.0203859946
0.3438071184 0.1332038232 0.3259990473
-0.4771682527 0.1381934656 0.1733486240
0.2122256040 0.1428369654 0.3420503245
0.4180252387 0.1403418541 -0.0733458235
-0.0610952705 -0.0250014966 0.3466322144
-0.0611514318 0.1088774721 0.1368795359
-0.4540855090 -0.0202635875 0.1132028677
0.1198538418 0.1651011081 0.2749781121
0.4673213424 -0.0889005974 0.1287124402
0.0991078541 -0.0889005974 -0.2052125808
0.3471301024 0.0007452407 0.3253290631
0.2689294395 0.1651011081 0.1496761153
-0.0142584220 0.0049650796 0.1633426990
0.0757758211 -0.0639098933 0.3480946882
-0.1602945136 -0.1480699027 -0.2311219350
0.3324843727 0.0800279847 0.3280952936
0.3613078080 0.1304708854 0.3222753153
-0.4857180636 0.0454234406 0.1810761041
-0.4536324354 -0.0191563001 0.1121380583
0.2274144766 0.1651011081 0.3023587611
0.2661444920 0.1651011081 0.0318917218
0.4991844591 0.0743453603 0.1756479160
0.3811337931 0.1651011081 -0.0495298468
-0.1694753954 -0.0889005974 -0.2939261052
-0.3630508413 0.0996672414 -0.1476583872
0.4008191711 -0.0889005974 0.2509223329
-0.0100521865 -0.0117239004 0.3481508225
0.0582280358 -0.0420835012 -0.2626293332
-0.0715277356 0.1651011081 0.2286348005
0.1522137143 -0.0889005974 0.2514277398
-0.1723797858 0.0740141789 0.3052586681
0.2391041115 -0.0889005974 0.2986767339
0.0958385144 -0.0889005974 -0.0987813044
0.1559400571 -0.0590101270 0.3454747637
-0.0575469137 0.1651011081 -0.2559027105
-0.1096002616 -0.1156148448 -0.1558121969
0.0831736001 0.0060852942 0.1693594965
0.0206543883 -0.0748655910 -0.2919410879
0.1744045276 0.0865403718 0.1328721968
-0.2769962506 0.1651011081 -0.2493345339
0.1482865501 -0.0889005974 0.2127299267
-0.0649632589 -0.1051436512 -0.1348932553
0.4996900345 0.1356236218 0.1677788407
0.2206570043 0.1651011081 0.1251138261
0.4258543283 -0.0889005974 0.2508360406
0.2787402463 -0.0889005974 0.0690079625
-0.0025840495 0.1592370571 -0.3069396252
-0.1115366008 0.1523452901 0.1992832345
-0.1329860332 0.0434132957 -0.3484584026
-0.3241308561 -0.0397524746 -0.2142717225
0.2427859186 0.1249216727 0.0051720920
-0.1877338850 0.0058501425 0.3166619731
0.1779183158 0.0839276156 0.3443050662
-0.0719117161 -0.0772121521 -0.3383722976
0.2375167188 0.1496619435 0.0449452273
-0.4744955433 -0.0280486488 0.1404872511
-0.4337003151 0.1105386526 0.0151072487
-0.2890035854 0.1150015447 -0.0360931064
-0.0948367202 0.1651011081 -0.1048509693
0.4538168063 -0.0332263641 0.2814980964
-0.1283238178 0.0571843847 0.2665497049
0.4787684267 -0.0889005974 0.0574620512
0.1095672896 0.1095554801 -0.2092386964
-0.4372888979 -0.0679004807 0.0250507684
0.2619619527 0.1444418654 0.3376538813
-0.0946272522 -0.0889005974 0.2354373320
0.2426837542 -0.0067998985 0.0075376694
-0.2048317997 0.1651011081 -0.2072914249
-0.4057464671 0.0071108805 0.0223320264
-0.4079437842 -0.0889005974 -0.0170852435
0.4079546629 0.1651011081 0.2371173941
-0.0941393807 -0.0889005974 0.3410828430
-0.3559265266 0.1284152316 -0.1609745779
-0.1565172206 -0.0708406965 0.3379842721
-0.1424150474 0.0152202477 -0.3483228538
0.4980787302 0.0066529678 0.1866696662
-0.1615876367 -0.0889005974 0.3160563739
0.1861391366 -0.0889005974 0.2143007910
-0.1377618315 0.0228143540 0.3407705431
0.2377128318 -0.0063754652 -0.0676359504
0.2390242925 -0.0561868703 -0.0583560310
0.4177936570 0.1651011081 0.0613921328
0.2538628311 0.1651011081 0.0955426210
0.0381524488 0.0986232775 0.3484834079
0.2428867633 -0.0770416302 -0.0099006602
-0.2757689989 0.0237580204 -0.0314035960
0.2173320962 -0.0889005974 0.2320818408
0.2297983007 -0.0889005974 0.2219333114
0.2415971560 -0.0701814320 0.0211493697
0.1570725482 -0.0889005974 0.3446459425
0.3784036243 0.0361623350 0.3179747103
-0.1582853817 0.0181765772 0.3377382447
-0.1625238751 0.1651011081 -0.0380084790
-0.0367534507 0.1293040828 0.1536745685
0.4880396310 0.1439326034 0.2303280949
-0.0621898575 0.1651011081 0.2839565168
-0.2575581768 0.1651011081 -0.2877034975
-0.1255806643 -0.0889005974 0.2863889394
-0.2343517381 0.0491371550 -0.0067274602
0.3629502684 0.1214611313 0.3218847555
0.0587855500 -0.0103864316 -0.2621522838
0.2802856072 -0.0889005974 -0.0314392124
0.4999928980 -0.0198793836 0.1571056541
-0.4479752663 -0.0041446432 0.0557963747
0.4585603365 0.0886645448 0.2771200598
0.1204537866 -0.0889005974 -0.1712184327
0.3259673752 -0.0889005974 0.3141768804
-0.0817716506 0.0680630693 0.1146878480
0.4784418721 0.0268435924 0.0367625652
-0.1631451858 0.1651011081 -0.2069630790
0.4571031259 -0.0347294638 -0.0119521964
0.1636671722 -0.0889005974 0.2346341067
0.1180301110 0.0544840972 0.1606611279
-0.0702173261 -0.1180228058 -0.2255542588
0.2742018384 0.1651011081 -0.1401238823
0.0114386619 -0.0889005974 0.1761170917
-0.4791843959 -0.0637142961 0.1792214475
0.4248984798 0.0994508223 -0.0640890185
0.0985946962 0.1651011081 0.3364266281
-0.0852177016 -0.0889005974 0.1629717329
-0.1782469906 -0.0190378643 0.3330412367
-0.1887486800 0.0538734997 0.3177660599
-0.0872914752 -0.0550184096 -0.0494212613
0.2214347565 -0.0005877852 -0.1626895473
-0.3289454467 0.0378644276 -0.2067888412
-0.1721991996 -0.0889005974 -0.2958995228
-0.1163469649 0.1379847891 0.3430303432
0.3397019495 -0.0889005974 -0.1300481549
0.2203887096 -0.0775392362 -0.1728439127
0.4976992403 0.1077334893 0.1168991519
-0.0147114981 0.0808002832 -0.3138606630
-0.2307869497 0.1601095098 -0.0039296582
-0.2091912624 -0.0267299212 0.0154338365
-0.4507838634 -0.0653487770 0.1055449989
-0.0866444760 0.0059560061 -0.0497649873
-0.1078200455 0.0907462654 0.0629684169
-0.0930607616 -0.0889005974 0.2194031621
-0.3953202709 -0.0800299693 -0.0805614531
0.1178253989 -0.0836938593 -0.1983604218
-0.4990577893 0.1043337138 0.2368890186
0.0527877268 -0.0889005974 0.2569658800
-0.0504570478 -0.0889005974 -0.2243604558
-0.0393883251 0.1651011081 -0.1403165012
-0.1081565162 -0.0124660472 0.0618608202
0.3293007302 0.1651011081 -0.1056913381
-0.4421470504 -0.0658654718 0.0388015941
-0.2510359802 0.1602878502 -0.3012436118
-0.0280284161 0.1180810206 -0.0745382839
-0.0880550968 0.0249655968 -0.3428021661
0.1011955462 0.0568172061 -0.2194065942
0.4470049952 -0.0889005974 -0.0161522727
-0.1912317767 -0.0040061444 0.3251210105
0.2035002926 -0.0889005974 0.2153037296
-0.1546884566 0.0394931068 0.0848675659
-0.4940726310 -0.0415677702 0.2253794012
0.4554528860 -0.0463731079 -0.0150210986
0.2409109047 0.1651011081 -0.0500717204
0.3834362265 0.0730489108 -0.1140928270
0.4956341614 0.1281350357 0.2020783730
-0.2091141160 0.1651011081 -0.1835807078
0.1474648981 0.0278557962 -0.1156407801
0.3144632876 0.1651011081 0.1396149026
0.3453367413 -0.0889005974 0.2186780878
0.0092689206 0.1651011081 0.2625450091
0.1652520124 0.1651011081 0.1901726343
-0.1512526864 0.1555585197 0.2898357490
-0.1142037306 0.0480832024 0.0132775231
0.4777583142 -0.0494770745 0.0348867229
-0.1404080334 -0.0440874113 -0.3483747548
-0.3277733039 0.0271101884 -0.0388633779
0.3480581841 -0.0889005974 0.0855959584
-0.0342035184 -0.0889005974 -0.3045918309
0.1997052736 0.1651011081 0.3308282896
0.2443135654 0.1651011081 0.3211243578
0.0035685776 0.1651011081 0.2450292142
0.2654497033 -0.0808169940 0.3372911301
0.4176591520 0.0520138734 -0.0738294924
0.1077330419 -0.0889005974 -0.1608411003
-0.4464461655 0.0934840422 0.0512986531
0.4924753158 0.0625916109 0.0858861444
0.4156646866 -0.0889005974 0.3010009659
-0.4327563223 0.1008464385 0.0676274841
0.3941540648 0.1651011081 0.1747046239
0.3094183541 0.1651011081 0.2917846264
0.1769364522 0.0217933640 0.1310759600
-0.2460731508 -0.0889005974 -0.2965775652
0.2671535753 0.0860175295 -0.2046008331
0.2529974759 0.1651011081 -0.0833771387
-0.1109026148 0.1125173251 0.2075916797
0.3561591850 -0.0889005974 0.2317414767
0.0793253835 -0.0889005974 0.3148302584
0.1470807307 -0.0286128464 0.1489201149
-0.4913065335 0.1399710955 0.2164087052
-0.0237345634 -0.0851203082 0.1598443771
-0.0996419537 -0.0863593980 -0.0347111660
-0.0661861994 0.0676154763 -0.3365452168
0.0669000479 0.1651011081 0.2707418943
-0.3382573800 0.1651011081 -0.0837013132
0.0425286679 -0.0058851771 0.1725399117
0.3755016898 -0.0889005974 0.1735127134
-0.4108911149 -0.0229691108 -0.0439701187
0.4361820591 0.1651011081 0.1860364254
