-0.0564577854 0.1432675946 0.0921286643
-0.1975293967 -0.0142455715 -0.2728846769
-0.1948128431 0.0693021217 -0.2327773141
-0.1064717023 -0.0256166659 0.3857809743
-0.0360182552 0.1438181526 -0.0624814694
0.1152072032 0.1726012400 0.2842822745
0.1486390080 -0.1290738902 -0.0286970899
-0.1945880963 0.0397880707 -0.2311601823
-0.2154752523 0.0591590458 -0.3974114186
-0.1483261323 -0.0421574442 0.0502475722
-0.1376050357 0.0898393934 0.1937365111
0.0870710921 -0.1468620883 -0.0665064318
0.1930387231 -0.1527791739 -0.2679762698
-0.1391591608 -0.1626022039 -0.1468943720
-0.0710573927 0.1327620470 -0.3113686481
0.2199167216 -0.0623621076 -0.1231661656
0.0503743055 0.0173577977 0.5000000000
0.1804128441 0.1441040241 -0.1097929925
0.1710201204 0.1269647509 0.2942564673
-0.1396140919 0.1152459317 0.0022199298
0.0630384434 -0.0104638202 -0.5000000000
-0.1012780696 0.1306266354 -0.2348050715
0.0936506619 -0.1278413159 -0.5000000000
0.1505109634 -0.1193802607 0.0520398346
-0.1778158771 -0.1808633556 -0.3841884079
0.1625607769 -0.1171887477 0.0330018900
0.1407401925 0.1640612014 0.1969914174
-0.2111425981 -0.1695961045 -0.4221224769
0.0964726941 -0.1821711310 -0.4365536461
0.1571661254 -0.0912638648 0.3009642129
0.1920971902 0.0901953432 0.1045833555
-0.0814857095 -0.1691611319 -0.5000000000
0.0982949311 0.0992991329 0.5000000000
-0.2081675655 0.1003665063 -0.3433697499
0.2204971546 0.0062386337 -0.3203862994
0.2091896461 -0.0407314909 0.2448263440
0.1332390910 0.0230333751 0.5000000000
-0.1012473980 0.0227568972 -0.5000000000
-0.1482081028 -0.1742250200 -0.2907021821
0.1267357029 -0.1375234532 -0.0540017381
-0.0004868046 0.1637258444 0.2163782118
-0.2163931699 -0.0066688773 -0.4111039350
0.0744701438 0.1581511360 -0.0105374401
-0.0209817329 0.1525961926 0.0874542723
0.1024382708 0.1690111636 0.1756434782
0.1800106070 0.1370335014 -0.3524140727
-0.1163448011 -0.0439688011 0.2653727907
-0.0886843959 -0.1089267259 -0.5000000000
0.1769667605 -0.0615818143 0.4345682018
-0.1406509168 -0.0094848607 0.1608709283
-0.0220100593 -0.1082984304 0.4593986954
-0.0029618532 -0.1411705365 0.1943258719
-0.1332244669 0.0521140412 0.2594158870
0.2210084213 -0.0990430305 -0.1904809586
0.0743935669 -0.1610821569 -0.2128828368
0.1773648493 -0.0565285151 0.4829481637
-0.2155064415 -0.1535882439 -0.4384641490
0.1848307828 0.1443324415 -0.2086575221
0.1667132307 -0.1418756876 -0.1646718821
-0.0481777276 -0.1100142680 0.3648191371
0.0144020869 0.1459066830 -0.1544967718
-0.1121074071 -0.0317751335 0.3282995928
-0.2067429137 0.0128410897 -0.3330956165
-0.1481497338 0.0157917834 0.1304868252
-0.2190811789 0.0436446159 -0.4266707453
0.2172045927 0.0038070391 -0.1913284602
0.0313826841 -0.1612935245 -0.1615532195
0.2179516444 -0.1247275377 -0.1489120421
-0.1360197526 -0.1868156371 -0.4626899389
0.0315999242 -0.1721817905 -0.3038140290
0.1189587793 0.1436539676 -0.2523933761
-0.1378219174 0.1282582786 -0.4293806389
-0.1426523389 0.0544915236 0.1843417037
0.2168586786 -0.0275026545 -0.0010690318
0.1942011980 0.0927840294 0.4719542299
-0.1983777222 -0.0575198661 -0.3032736830
-0.2149247304 0.0177264990 -0.3960179765
-0.0252047505 0.1299914373 -0.4622881484
0.1093550045 0.1738271669 0.2925532052
-0.1204890459 0.1106473338 0.1838335802
0.2045719160 0.1341380923 -0.3979573291
-0.0692925186 0.1369325839 0.3844562145
0.1636258040 0.0954994225 0.5000000000
-0.0621786571 -0.1887345443 -0.4908428706
0.1478007653 -0.1692303019 -0.3499314860
-0.1223063323 0.0604910272 0.3394564741
0.1370869178 0.0278104759 0.5000000000
0.0880337552 -0.1557713574 -0.1718603560
-0.0725839869 0.1367196105 -0.0612296456
0.2014979988 -0.0173267731 -0.5000000000
0.2005583658 -0.1544884866 -0.5000000000
-0.1539775190 0.1282354630 -0.4697953899
-0.1961459615 0.0942955609 -0.2489494268
-0.2218704012 -0.0586138725 -0.5000000000
-0.0599280293 0.1441456214 0.3714272398
0.0071014175 -0.0967007200 0.5000000000
0.1209891179 0.1604238095 0.0363510327
-0.0742522312 0.0908089564 -0.5000000000
0.1007965116 -0.0612834998 0.5000000000
-0.0703170711 -0.1525445884 -0.5000000000
0.2211620947 0.1304655613 -0.4441666176
-0.1860239115 0.1194297490 -0.2605489397
0.1372486535 -0.1455277552 -0.1483274091
0.0747095354 -0.1460155673 -0.0272090235
0.1159231289 0.0340896752 0.5000000000
-0.1975902735 0.0504439998 -0.2542356892
0.1227345030 0.1647127838 0.1224235467
-0.1778332871 -0.1488306004 -0.2616212660
-0.0586778824 0.1442978229 0.2215163937
0.0430752196 -0.1350225687 0.2482864525
0.0391242155 0.0959822494 -0.5000000000
0.1314265061 0.1314162430 -0.4529503173
0.0380569173 0.1280984834 0.5000000000
0.0247239861 0.1660880880 0.1772335986
0.2037504806 0.0609861267 0.4519785480
0.1459280701 0.1555592292 0.4368673337
0.2264274829 -0.1329379557 -0.4208752644
-0.2163827122 0.0224660384 -0.5000000000
0.2055831599 0.0900444164 -0.2322934986
-0.1053522201 0.0218671811 0.4803601090
0.2276803451 -0.1519201003 -0.4761790150
-0.1720646711 -0.1607661637 -0.2472484574
0.2135630320 -0.0714965218 0.0691860096
-0.2148679091 -0.0740841681 -0.5000000000
0.0050420073 0.1304077362 -0.4596781142
0.2186728927 -0.0596679074 -0.0680838075
0.2127272740 0.0221201271 -0.0772747899
0.2017367105 -0.1237600786 -0.1006468941
0.0197035705 -0.1201289418 0.4689273802
0.2069897464 0.0417439573 0.2532390338
0.2226306084 0.0482935295 -0.4196013041
0.2130165791 -0.1005333889 0.0065938285
-0.2187435105 -0.0237917824 -0.4313171881
-0.0530650486 0.0015142477 0.5000000000
0.2078272483 -0.0995446371 0.0256608799
0.0918524489 0.1321074676 -0.4403124460
0.1422930996 0.1633700671 0.1472093559
0.0917186890 0.1817285190 0.4204727040
-0.0471682116 0.1517762696 0.3398912964
0.1904313180 0.0980795722 0.0319070303
0.1578379977 0.1447862832 0.2180125183
0.0683851283 -0.0481647425 0.5000000000
0.2233752803 -0.0106939631 -0.3765524810
0.2041199153 -0.1041194060 0.0091398226
-0.1739597761 -0.0059097962 -0.0899286295
-0.1556893568 0.0567657720 0.0802322859
0.1696603326 -0.1190863144 -0.0016366082
-0.0175046041 -0.1468666648 0.1125327683
-0.1142427535 -0.0533887238 0.2527872347
0.1545039797 -0.1806471641 -0.4369532340
0.1679297730 -0.1344178636 -0.1118601313
-0.0994277461 0.1300093348 -0.3735067159
-0.1745972779 -0.0130197296 -0.1009667507
0.1888862500 0.0507741018 0.5000000000
0.2092921940 0.0268689386 0.2900967817
0.0821518087 0.1430671057 -0.2574900973
0.2205975225 -0.0683737643 -0.1538143325
0.2111387841 0.0030670965 0.2712950936
-0.1154151749 -0.0460166417 0.2659762377
-0.1785297373 -0.1630738896 -0.2766102047
0.2105150134 -0.0635598820 0.1537538825
0.1329519563 -0.1659448575 -0.5000000000
-0.1362261068 -0.1145933013 -0.0221811944
0.1284319291 -0.0621498020 -0.5000000000
0.2135842612 0.0154181717 -0.0681187700
-0.1161930604 0.0093108872 0.3796650017
-0.0712198858 0.1256799841 -0.5000000000
0.1206753305 0.1587179162 0.0049281888
-0.0428456088 -0.1241067248 -0.5000000000
-0.2074935104 0.0079188053 -0.3401428876
-0.1079955820 0.1232077901 0.1031177142
0.2163302450 0.0141616986 -0.2036603422
0.2167780686 -0.0864798670 -0.0427327289
-0.0343124373 -0.1157079337 0.3829195313
-0.1900800495 -0.0922564396 -0.2763794459
0.1931636040 0.1377328480 -0.3341423708
0.0000238152 0.1684014564 0.2973529156
-0.1784499775 0.0897469726 -0.1110118499
-0.0400729076 0.1476174006 0.0780662923
0.1957378143 0.0807904689 0.2664947182
0.1737763371 -0.1548634996 -0.2648252417
0.1267416103 -0.1407864031 -0.0857771416
-0.0051332967 -0.1385622590 0.2311329028
-0.1215921414 -0.0250820031 0.2756081008
0.0496887732 -0.1545786911 -0.0945955385
0.1712544782 0.1336298778 0.0799717654
-0.0896266111 -0.0927606671 -0.5000000000
0.1924793634 -0.0743313984 0.2255640858
0.1597508417 -0.1107352381 0.0964812084
0.0221388909 0.1836436916 0.4543521370
0.1524333814 -0.1063752964 0.1685558277
-0.2047045554 -0.1757889063 -0.3957010326
0.0454381168 -0.1508352165 -0.0318418045
0.0768473406 0.1414934885 -0.2816573517
-0.1197061273 0.1145546048 0.1447840324
0.1280590617 -0.0600215157 0.5000000000
0.1621120817 -0.1809573912 -0.4407454235
0.2054473818 -0.0185842279 0.3826441600
-0.1412012307 -0.1653791568 -0.1796078733
0.0210638041 0.1577750954 0.5000000000
-0.0722729990 0.1336774186 0.4058745620
-0.1940746611 -0.1209782594 -0.3186788236
0.1531749215 -0.1858746402 -0.4745772197
-0.2267191580 0.0859834094 -0.4876192870
-0.0944551452 -0.0751845829 0.3006836275
-0.1060247185 0.0964072765 0.3859690481
0.1201264108 0.1671894158 0.1694220837
-0.2222048960 0.0628528271 -0.4513397024
0.0831709536 0.1697790983 0.1763211722
0.0991003712 0.1708678233 0.2062907414
0.2145215666 -0.0795410848 0.0277613745
0.0956073952 -0.1593487866 -0.5000000000
-0.1976810869 -0.1583457087 -0.3574442914
0.1979698821 0.0797982793 -0.0054478909
-0.1872032424 -0.0743301463 -0.2445816578
0.1618826804 -0.1830117023 -0.4551539929
-0.1814872752 -0.1093336453 -0.5000000000
0.2094743184 0.0297212012 0.1423704541
0.2169225533 -0.0514454695 0.0084516911
0.1428320393 -0.0157250900 -0.5000000000
-0.1867998590 -0.0721751618 -0.2402161096
-0.1399379296 -0.1712637282 -0.2500535069
0.1619748387 0.1392152734 0.3781259321
-0.1202914474 -0.1860437415 -0.4515329813
-0.0669881213 -0.1761168347 -0.3116645884
0.2101792098 -0.1245922926 -0.1191224249
0.1414211875 -0.1391081888 -0.1000462729
0.0109499509 0.1006685121 -0.5000000000
-0.0046093452 -0.1446205886 0.1430524759
0.1310510953 0.0135789481 -0.5000000000
0.0107543900 0.1587470347 0.0896038738
0.1312304489 -0.0436175694 -0.5000000000
-0.1397643144 0.0144165257 0.1961700646
0.0699970700 -0.1375596956 0.1152405192
0.2140621012 -0.0833889945 0.0291608546
0.1602127166 -0.1187423459 -0.5000000000
0.2140432049 0.1066321753 -0.5000000000
0.1393419344 -0.1240050983 0.0447999478
0.2201188803 -0.1039469349 -0.1685480125
-0.1175604623 -0.0916744083 0.1241349731
0.0336635214 -0.1793475305 -0.3896184551
0.1308951215 -0.1446147167 -0.1295202553
0.0112058798 -0.1773583713 -0.3567392802
-0.0950921232 -0.0257202566 0.4705129641
0.0160020978 -0.1502997607 0.0297426464
0.0899204694 -0.1825140377 -0.4382167867
0.0707514706 -0.1340801540 0.1736498987
0.2206445593 -0.0793413594 -0.1594931199
0.0001694960 -0.1859096356 -0.4585539457
0.1849285045 -0.1630052939 -0.3278852144
-0.0756202272 -0.0366903434 -0.5000000000
0.1110982347 -0.1160235002 0.2897667303
0.1879619879 -0.1036009765 0.0560284234
-0.0636887319 0.1393893907 -0.0157362324
-0.0751444734 -0.1378810927 0.1648479307
0.1044772007 0.1463639661 -0.2080555109
0.0168573791 0.1831212976 0.4626180266
0.2134707282 -0.0917880302 0.0197581507
0.0337237109 0.1526077693 -0.0629882149
0.1920997690 -0.0789284802 0.1985193758
0.2208154867 -0.1206342155 -0.2138764368
-0.1344179099 -0.0622121167 0.1013252304
0.0211401151 -0.1285901604 0.3739281242
-0.0706942460 -0.0700484441 0.4546061713
0.2272361863 -0.1231928552 -0.4541499299
-0.1837359783 -0.1856548284 -0.4484262774
0.0892461939 -0.1318314598 0.1364151986
0.0700329505 -0.1576010454 -0.1665186568
0.0642519122 0.1659783338 0.1198044969
0.1014886571 -0.1168122216 0.3522739000
0.2222611376 0.0031433387 -0.3645785890
-0.1371852105 -0.0417887354 0.1276060003
-0.0987250058 0.1300990376 -0.3676512486
0.1676833966 0.1342548625 0.1573238016
-0.0533831025 0.1471717461 0.2527735804
-0.0883476060 0.0877084612 0.5000000000
-0.0888044721 0.1138961564 0.4262051734
0.1387607283 -0.0627916336 0.5000000000
0.1693582145 0.1304903020 0.3768409613
-0.0025135280 0.1173250226 0.5000000000
0.1565996513 -0.0790983603 0.4883125594
0.1968476178 -0.1858112378 -0.4774578452
-0.1625300410 -0.1458385461 -0.1907538003
-0.0880472503 0.1113666375 0.4507594243
-0.1083255951 0.0546992614 0.4528725034
-0.1013370192 -0.0881021994 0.2192903395
-0.1948696447 -0.0222471809 -0.2576619986
0.2214446931 -0.0548717756 -0.2070726984
-0.2101902870 -0.0283990202 -0.3709566800
-0.0892316962 -0.1844040450 -0.4289056367
0.2183611217 0.1267577929 -0.4196162141
-0.0768200095 -0.0736363611 0.4046399617
0.1511023851 -0.0704788587 -0.5000000000
-0.2119316526 -0.0793585624 -0.3993309057
-0.2092661845 -0.0295165210 -0.3647425295
0.0226868378 -0.1036950008 0.5000000000
0.2047814245 0.0918658656 -0.2256193139
-0.0091511669 0.1306484097 -0.4507416085
0.2019906317 0.0637570723 0.0430037080
-0.0557785298 0.0023125141 -0.5000000000
0.0905811094 0.1595102210 0.0071299314
0.1268553290 0.1685147081 0.2244422466
0.1821180938 -0.1781680578 -0.4261839141
-0.0524753330 -0.1279491405 0.2721500095
0.1811978298 -0.1167802660 -0.0142836699
0.1126561906 0.1573778106 -0.0238895123
-0.0654135794 -0.0930614988 0.3743163777
-0.2034683299 -0.1507950031 -0.3806478048
-0.1008093899 0.0741965655 0.4826172933
-0.1237511698 0.0303753254 -0.5000000000
0.1536187069 0.0085121523 -0.5000000000
0.1808719308 -0.0783422988 0.2609789031
0.0801296934 0.1500865153 -0.1426347844
-0.0003713200 0.1477752704 -0.0896696288
0.1012218732 -0.1494836189 -0.1248499674
-0.1368659932 -0.1246283260 -0.5000000000
-0.0874831638 0.1271779676 0.2770904766
-0.0231727373 -0.1624443807 -0.1240884559
-0.0132663412 -0.1682934519 -0.2191510749
-0.1806861398 0.0679616611 -0.1203417811
-0.1093435256 -0.1663894723 -0.5000000000
-0.2147653232 0.0538699712 -0.3918042272
0.1123646951 -0.0718678760 0.5000000000
0.1711877554 -0.0406630156 -0.5000000000
0.1420248986 0.1582496319 0.3226888118
-0.1020302225 0.1270369929 0.0699519319
-0.1406850746 -0.0571943649 0.0722347364
-0.0983537473 0.1302835077 -0.0307255348
-0.1610804316 0.0372877943 0.0371476049
-0.0766319468 0.1352574340 -0.1164757085
0.1888120475 0.0775282393 -0.5000000000
-0.1746866778 0.0626649528 -0.0718462912
0.0934531166 -0.0632248179 -0.5000000000
-0.0359513067 -0.1876196210 -0.5000000000
-0.1027856874 0.1069638507 0.3499632909
-0.0021133554 -0.1419578626 0.1829197570
-0.0735546831 0.1358888919 -0.1113429406
0.1826194054 -0.0538408335 0.4399652612
-0.0738751619 -0.0352742391 -0.5000000000
0.0226242580 0.1841292027 0.4600284632
0.1760685651 0.1225321621 0.4129263400
-0.0075539409 0.1318862614 -0.4227860211
0.2249198888 -0.0832349448 -0.3532456084
0.0231040018 -0.1823534616 -0.4208886666
0.1602640706 -0.0753406908 0.4957512241
0.0681811216 -0.0933573448 -0.5000000000
-0.1445165734 -0.0535058068 0.0547815195
0.0241113599 0.1399887671 -0.2778705951
0.2089092288 0.0304555531 0.2759193299
0.0105158448 -0.1367518212 0.2581077350
-0.2095593626 0.1269460997 -0.4577321654
0.2060344142 0.0411050350 0.4970509335
-0.2269076836 -0.0187792902 -0.4900202813
0.0645614118 0.1684050363 0.1577849044
0.2128316782 0.1018237370 -0.5000000000
0.2180433340 -0.0396676435 -0.0458135388
0.1606596353 0.1427647932 0.4591480683
-0.1933272019 0.1225989282 -0.3383272352
0.0208683412 -0.1339094155 0.2978992273
0.1500671959 0.1516895144 0.2731777425
0.0373428177 -0.1355168079 0.2516823955
-0.1142724734 -0.1142399448 0.0805009024
0.2205423814 0.1287156986 -0.4968469397
0.2069384229 0.1143093911 -0.3014527854
0.0711564072 0.1025372437 -0.5000000000
-0.1092256810 -0.0026290260 0.4174629415
-0.0754851646 -0.1361550150 0.1690488127
0.1937338022 0.0849372683 0.1867695945
0.2256416425 0.1088104249 -0.4767902576
0.1915004765 0.0914160256 0.1134410855
-0.1144742930 -0.0492024680 0.2634218031
0.1085154977 -0.1518019035 -0.1611583475
0.0848662351 -0.1372041797 0.0693010506
0.0648700543 0.0079229756 0.5000000000
-0.0146900446 0.1426852915 -0.1648582419
-0.1980931292 0.0895346388 -0.2625868937
-0.1054760415 0.1300553453 -0.2158083958
-0.0246771083 0.1644191667 0.3846377802
-0.0646672249 0.1323987495 -0.3467915773
-0.0865282091 -0.0553190247 0.4240958694
0.0727779985 0.1285675113 -0.4995735912
0.1432684146 0.1582115339 0.4574727546
-0.1063106549 -0.0542133667 0.3014166113
0.1878212245 0.0984390894 0.2372219119
0.0426863328 -0.1371309205 0.2096042341
0.2222208847 -0.0638451854 -0.2356857032
-0.0496964824 0.1409530741 -0.0776616289
-0.1560174087 0.1177166992 -0.1237364395
-0.1825538919 0.1195117002 -0.2524762575
-0.1438806798 0.0069042641 0.1562910288
-0.2220035231 -0.0518939357 -0.4579112004
0.0220711233 0.0567357098 0.5000000000
-0.0839958885 0.1292804788 -0.4609395179
0.2219601154 -0.0533946381 -0.2367147704
-0.1990255220 0.1191952317 -0.2872101227
-0.1766817220 0.0595758972 -0.0872939279
-0.0936205342 0.0523763742 0.5000000000
-0.0883235914 0.0384183920 0.5000000000
-0.1261957170 -0.1040826727 0.0491866357
-0.1805569161 -0.1662476890 -0.2876455578
-0.1073729178 -0.1257109503 0.0805591409
-0.0941594198 -0.0794581550 0.2868797597
-0.1215883911 -0.0666145379 0.1695100635
0.1884141076 -0.1296428970 -0.5000000000
-0.2151822064 -0.0076011436 -0.4021795762
0.2175549146 -0.0211624060 -0.5000000000
-0.0770405811 -0.0541051374 0.4888680936
0.1954107401 0.0858711126 0.3900675723
0.0450775708 0.1252723949 -0.5000000000
0.2033096201 -0.0436152471 0.3308356078
0.0823323406 0.1187115485 0.5000000000
0.1664432210 -0.1091453468 0.0858741261
-0.2106118310 -0.1583565902 -0.4166502247
0.2185137066 -0.0216265116 -0.1336915921
0.1811367664 0.0845146500 -0.5000000000
-0.0670990885 -0.1842393803 -0.4284527273
0.0716848931 -0.1302678618 0.2430378605
-0.1275446760 -0.1676657431 -0.1996991517
0.0067149673 -0.1640947056 -0.1741682786
0.1315265180 0.1611807069 0.0654960139
-0.0703422988 -0.1833527313 -0.4155679134
-0.1454445143 0.1263165106 -0.5000000000
0.0674949990 0.0979365829 -0.5000000000
-0.0774901457 -0.1059711225 0.2677554505
-0.0905615085 -0.1118672193 0.1915273651
-0.0368631521 0.1528846441 0.2124214290
-0.1232630764 -0.0236681360 0.2663741903
-0.2182028364 0.0460254320 -0.4195689108
0.0016356057 0.1607735522 0.1555126210
-0.1699713865 -0.1483504103 -0.5000000000
-0.0838671916 -0.0411798276 0.4975406347
-0.1851502928 0.0683232246 -0.5000000000
0.2090790795 0.0406344930 -0.0582724632
0.0145255751 0.1421996958 -0.2256469945
-0.2089093247 -0.1142341448 -0.3939158424
0.0754741623 -0.1793584925 -0.4045771788
0.1870546128 0.1032199302 0.3755681104
-0.1111933233 -0.1164675100 0.0883994054
0.1637784300 -0.0894873418 0.2726167112
-0.0234988672 -0.1507082266 0.0565968359
0.2202968519 0.0208790072 -0.3441250075
-0.2148857652 -0.0878144709 -0.4196294230
0.2268220079 -0.1043735086 -0.4358515561
-0.0494216792 0.1068109493 0.5000000000
0.1079751522 0.0406751370 -0.5000000000
0.0976474767 0.1626778240 0.0608120946
0.0937136292 0.1513869984 -0.1251631854
-0.1253901799 -0.0086960380 0.2799320424
-0.1089645761 0.1289969995 -0.1406574108
0.0087457585 -0.1846575566 -0.4448660880
-0.0227270398 -0.1790104409 -0.3652583748
0.2206900885 -0.0875356285 -0.1671862056
0.2132190037 0.0217597523 -0.1049982437
-0.1398025862 -0.0304735914 0.1314660272
-0.2149020050 -0.1057583457 -0.5000000000
0.2127244805 -0.0057535935 0.1952257310
0.0533344801 0.0041404688 0.5000000000
0.2163246287 0.1260283021 -0.4018670508
0.2048196455 0.0533258971 0.0443758806
0.2184663391 -0.1127237543 -0.1372283756
0.0258564766 -0.1743817230 -0.3273139350
0.0528192105 -0.0545338794 -0.5000000000
-0.1848413325 -0.0000856108 -0.1691709790
-0.1285328237 0.0337108471 0.2983315563
-0.0146034907 -0.1611886010 -0.1107171827
-0.2040679334 -0.1421610084 -0.3799476520
0.1562856693 0.1466613622 0.2173682057
-0.0544629639 -0.1731284917 -0.2707565871
0.0802437634 0.1348603651 -0.3929406276
-0.2028280625 -0.0764621458 -0.3421568394
-0.0007095776 0.1533566070 0.0222052842
0.1662725695 0.1355106940 0.1756238257
-0.2250206378 0.0843884363 -0.4740907461
0.2146835150 -0.1476182400 -0.5000000000
0.2200409703 0.0736690933 -0.4029014301
0.0588845959 -0.0609815806 0.5000000000
0.0811093758 0.1531410825 -0.0937888683
0.1945675720 0.0915158923 -0.0218979016
0.0172373707 0.1776404509 0.3791674602
-0.0707815496 0.1350353619 -0.1945515895
0.1100272527 0.1324719688 -0.4352972722
-0.0832913251 -0.0765543870 0.3570458782
0.1323226298 -0.1677923405 -0.3294645167
0.2260925901 -0.0942486473 -0.4042017846
0.1673354163 -0.1419733913 -0.1662800189
-0.2216608037 0.1231680735 -0.4499133361
-0.1164770767 0.1127773726 0.1907493782
0.1414185372 -0.1075988771 0.2137844033
0.1839800810 0.1059519498 0.1999684894
0.2223021668 -0.1355893865 -0.2778219911
-0.1735074608 -0.0075185978 -0.0878453833
0.1252795428 -0.1324871371 0.0010042348
-0.0352820438 0.1424231976 -0.1061288512
0.1467857663 -0.1840220103 -0.4603313335
-0.0598370323 0.1407847319 0.0090286766
-0.0956163401 -0.0618404984 0.3428843089
0.2074326300 0.0634998413 -0.5000000000
-0.2171658363 0.0935477053 -0.4124876606
-0.1303758902 0.0696753260 0.2702980801
-0.1637066792 -0.0167358387 -0.0231695749
0.1274357504 0.1341617330 -0.4079917242
-0.2055692386 -0.1002602282 -0.3697609204
-0.1406088458 -0.1423483371 -0.5000000000
-0.1434141443 -0.0255351709 -0.5000000000
-0.1654160374 0.1269563764 -0.4112630060
0.0865574362 -0.1703398284 -0.3216000147
0.0804116466 -0.1431716594 -0.0023946242
0.0597195148 0.1883761655 0.4837928417
0.1617172902 0.1409469030 0.4368191754
0.0327221498 -0.1329039845 0.3052938305
-0.2179810757 -0.0120031353 -0.4237872341
0.1304871637 -0.1626560100 -0.2856823231
-0.1041725128 0.1302403769 -0.2199705965
0.1011239449 -0.1830845294 -0.4455180845
0.1572742559 -0.1311082994 -0.0656340239
-0.1416588120 0.0316757269 0.1917888552
-0.1828994069 0.0597565469 -0.1367689050
0.1750460535 -0.0947614953 0.1655798183
0.1582332164 -0.1708277745 -0.3671595921
-0.0060117683 -0.1859222703 -0.4580284871
0.0287427878 0.0584942787 -0.5000000000
0.1839697388 0.1108079725 0.4269611752
-0.0057520368 0.1468900300 0.5000000000
0.2240242682 -0.0759072347 -0.3148200907
0.0059486479 -0.0381560504 0.5000000000
0.1766770189 0.1205594466 0.3780718815
-0.1018127797 -0.0710915576 0.2733957818
0.1897285618 -0.1743842633 -0.4036550844
0.2066833598 -0.1640924899 -0.3469246524
0.0662569279 -0.1837675559 -0.4453763240
-0.1627380801 -0.0619080276 -0.0772050838
0.2013401028 0.0653244922 0.0578732904
-0.1531756096 -0.0516704684 0.0010860939
-0.0822391521 -0.0913343148 0.3029362681
0.2179326262 -0.0792060729 -0.0620353814
0.2081572108 0.0332109078 0.3544330959
0.0948078847 0.1674025862 0.1403002163
-0.1035358162 -0.0293022504 0.3971445214
-0.1097239492 -0.1586253384 -0.0808188289
0.2133070954 -0.0148163079 0.1740748987
0.0463517885 0.1627166998 0.5000000000
0.1846021888 0.1054497552 0.2992928126
-0.1037051801 0.0101875149 0.4820700525
-0.1537958266 -0.0146451883 -0.5000000000
-0.0625543620 -0.0250740727 0.5000000000
0.2035282188 -0.0184626179 0.4144677195
0.0797340326 0.1194188985 -0.5000000000
0.2261781785 -0.0408497364 -0.4358377666
0.0747443425 0.1178649154 -0.5000000000
-0.2140886420 -0.0623741852 -0.4078249475
-0.1483625310 -0.0983367152 -0.5000000000
0.2036193438 0.0706793719 -0.1080762733
0.2204902456 -0.1460486563 -0.2519901065
0.2061963687 0.0091912970 0.4522969588
0.1630516251 0.1413193530 0.4867699582
0.0026845251 -0.1603075691 -0.1131233561
0.1913287214 -0.1422564152 -0.1995349980
0.0859817168 -0.0893475079 -0.5000000000
0.1288428463 0.1615429705 0.0681647305
-0.1129330748 -0.0976703063 0.1314950301
0.1440756407 0.1467685320 -0.1938087227
-0.0196444098 0.1658079991 0.3706122511
-0.0488564715 -0.1152147413 0.3381815174
0.2188902198 -0.0798587082 -0.0944521396
-0.0776918641 -0.1580416835 -0.0546110927
-0.0147117773 0.1274505984 0.5000000000
-0.2148119723 -0.0823108236 -0.5000000000
0.1400157321 -0.0383034623 0.5000000000
0.2207986571 -0.0349713208 -0.2171612174
0.1928206003 0.0927894195 0.4095536312
0.2093313057 0.0270578764 0.2810238565
0.1363770744 0.1478234451 -0.1786407249
0.2239025126 -0.0752809339 -0.3093638072
-0.2081642198 -0.0990998953 -0.3839830049
-0.2105181409 -0.1332877708 -0.4087547672
0.0245267834 0.1312556158 -0.4463018373
-0.1655411614 -0.0128351688 -0.0328948820
-0.2251257481 -0.0827453356 -0.4807141141
-0.1091682110 0.0638357518 0.4364972204
-0.0675199590 -0.1280053523 0.2231766089
-0.0516065515 -0.0052709968 -0.5000000000
0.1532210399 0.1324997096 -0.4345922072
-0.1845815680 -0.0689155043 -0.2234200399
-0.0861272368 0.1318121916 0.1576203634
0.0576804455 -0.1800732731 -0.4058150237
-0.1371156635 -0.1715898041 -0.2532018675
-0.1920758768 0.0438308959 -0.5000000000
-0.0126335992 0.1704092838 0.4039907124
0.2064595703 -0.0253441492 0.3432089784
0.1503715892 -0.1385622465 -0.1122827242
-0.0501716158 -0.1759784061 -0.3137835193
-0.0679911723 0.1399545614 0.1993742859
-0.1244144424 0.1045832520 -0.5000000000
-0.1119717927 -0.1447104542 0.0168781373
-0.1964508114 -0.1160591592 -0.3280767293
-0.1579727886 -0.0025707335 0.0357683118
0.1512223802 -0.0600053576 0.5000000000
-0.0472404854 0.1315982045 -0.4032259752
-0.0914944946 0.1292469608 0.1573475458
-0.1949558009 0.0730880686 -0.2344470506
0.2081805577 -0.1690342073 -0.3772169669
-0.0496334671 -0.1661332439 -0.5000000000
-0.0705754962 0.1344943339 -0.2258855746
0.2057813308 0.0476921437 0.1191757843
0.0689284103 0.1875568678 0.4803350967
-0.1588073453 0.0213022899 0.0489776420
0.0494057828 0.0383389576 -0.5000000000
0.2023247266 -0.0368704276 0.3669349620
-0.1995240330 0.0791676262 -0.2715728990
-0.1546217156 0.1185820840 -0.1328827376
-0.2094673699 -0.0714298248 -0.5000000000
-0.0630815323 -0.1778524051 -0.3377868854
0.0842269635 0.1505677219 -0.1362515805
0.1690700494 0.1318190066 0.1664023967
0.2058752194 -0.0365414529 0.3171474478
-0.0038119347 0.1376345647 -0.2968971788
0.0759049481 0.1343861534 -0.4001912921
-0.2279871001 -0.0824866568 -0.4981962146
0.0858524025 -0.1776479810 -0.3918337807
0.2075447116 0.0320916897 0.4198682979
-0.2242892831 -0.0583668617 -0.4737488347
-0.1881456553 0.1284935984 -0.4982497001
0.0757531100 -0.1222291476 0.4015004502
-0.0110563868 -0.1096097550 -0.5000000000
-0.0997938262 -0.0826368104 0.2454502976
-0.2054015568 -0.0961942666 -0.3669602692
0.2210931884 -0.0109161483 -0.3000365237
0.1364227796 0.1504171210 -0.1332198679
-0.1269190734 -0.0312548492 0.2227919263
0.1412030049 0.1376121926 -0.3504997213
0.0167031043 0.1826848122 0.4566935197
-0.1077892286 0.1294293819 -0.1642694956
-0.0699842878 -0.0912685489 0.3616552742
0.0628597440 0.0902907304 0.5000000000
0.1852070205 -0.0792718345 0.2302701794
0.0002673495 -0.1234029253 0.4079211529
-0.1285362917 0.1031353746 0.1979011281
0.2279472137 0.0460392524 -0.4958296205
-0.0578863765 0.1408716915 -0.0107866480
-0.0062641000 -0.1857419984 -0.4558163571
-0.0055894855 0.0279990852 0.5000000000
-0.0299406686 -0.1317720480 0.2851846567
-0.0982517755 -0.1313274495 0.1018416059
0.0080941109 0.1545342901 0.0202775169
0.1721587457 0.1308125328 0.4865607945
0.0350264389 -0.1776889310 -0.3711592587
0.2178611926 -0.0390613851 -0.0365417005
-0.0736944608 -0.1773305931 -0.3281953462
-0.2198091753 -0.1106232105 -0.4527780126
-0.2260984455 -0.1340248675 -0.4886807735
0.0068607546 0.1670936667 0.2463760484
-0.0630114719 -0.1362291128 -0.5000000000
0.0243033851 -0.1446293429 0.1123691862
0.0453476875 0.1369501827 -0.3468924847
0.0186713062 0.1598266235 0.0875232615
-0.0333222443 0.1473967030 0.0240830383
-0.1693895840 0.1100551929 -0.0707725871
-0.2230780733 0.0608734124 -0.5000000000
-0.2155345445 0.0320421296 -0.3991720689
-0.1584872677 0.1067652355 0.0097981840
-0.1338003806 -0.0262932348 0.1833412374
-0.1018622508 0.1093504985 0.3401377018
-0.1677262011 0.1254054638 -0.3555119782
0.1430873007 -0.1029674876 0.2614814323
0.0228457029 0.1589452843 0.0635576137
0.1966342529 -0.0474352275 0.3579815099
0.0408166905 -0.0714017349 0.5000000000
-0.0355589211 0.1323734076 -0.3915123009
-0.0451768825 -0.1477434517 0.0933816858
-0.2032081304 -0.1339736473 -0.3721531135
0.2044228552 -0.1733223508 -0.4017315059
-0.1312022173 -0.1806087144 -0.3740416520
0.2082227724 0.0339328462 0.3271157366
-0.0731584890 0.0097355257 -0.5000000000
0.0368597361 -0.1221831023 0.4649699750
0.0283982057 0.1796466743 0.3789895403
-0.0367981462 -0.1438384078 0.1472295346
0.0883433189 0.1603961083 0.0219464541
0.1020006111 0.1762228376 0.3240923673
-0.0848823212 -0.0955724251 0.2743524804
0.0137040941 -0.1244347271 0.4174474347
-0.0972795927 -0.1666351673 -0.1751924874
0.1970022822 0.0992832136 -0.1296412837
-0.0326381518 0.1436693594 -0.0827237041
0.1836817994 0.1064763702 0.2015574500
0.0280707471 0.1704231042 0.2388814717
0.0504629676 -0.1380850245 0.1697775658
0.2195256717 0.0682996795 -0.3912599600
0.1832753128 0.1173198934 0.0061984581
-0.1467247315 -0.1085754532 -0.0623538673
0.1957092269 0.0953174644 -0.0817066635
0.1333078288 0.0784497837 0.5000000000
0.1997838850 0.1236327316 -0.2451007798
-0.2003697448 0.0235596631 -0.2804607163
-0.0105491568 -0.1420945512 0.1814780819
-0.1800458131 0.0799203459 -0.5000000000
0.0816037899 -0.1732163620 -0.3469511563
-0.1504527225 0.0815601660 -0.5000000000
-0.1825134890 -0.0243480822 -0.1693715061
0.1987184489 -0.1700998900 -0.3799711633
0.2058241443 0.0470797586 0.1536361084
0.1166232527 -0.0198317018 -0.5000000000
0.1772861307 0.1387347916 -0.3225134354
-0.1408356474 -0.1115973128 -0.0387316260
0.0410401629 0.1378090079 -0.3294392245
0.0840628767 0.1825708081 0.4116475458
0.1990407463 0.1356606747 -0.2624585808
-0.0410547696 0.1552167700 0.3500515871
-0.1079703463 -0.0918612704 -0.5000000000
0.1805072222 -0.1300974380 -0.1037468641
0.2091384425 0.0292077506 0.2579471514
-0.0394556109 -0.1375102339 0.2162758822
0.0176910639 -0.1731152239 -0.3064684454
-0.0180284386 -0.1545740568 -0.0046589528
0.2198037878 0.1297880894 -0.4329942936
0.1021216976 -0.1571312951 -0.2055702922
0.0179520090 0.0727661265 0.5000000000
0.1406133707 -0.1060079843 0.2387398541
-0.2067327308 -0.1324835182 -0.3893122307
-0.1411110608 -0.0700042573 0.0430520735
0.0003330913 0.1481451501 -0.0838565519
0.2046103906 0.0521717054 0.2286237912
0.1994067735 0.0737728592 0.3644124358
0.2066914739 -0.0492185075 0.2626717586
-0.0028650219 0.1712811784 0.3603364697
0.1189024515 0.1412977682 -0.2911770129
-0.0130488677 -0.1279910970 0.3455227739
-0.1142065476 -0.1765921960 -0.3159886243
0.0468660862 -0.1406371398 0.1336918516
0.2195294018 -0.1085647037 -0.1579229184
-0.2138180445 0.0102765186 -0.3885191888
-0.0521798756 -0.1481699527 0.0838457333
-0.1903381841 0.0596632206 -0.1963565838
0.2101587804 -0.1105886825 -0.5000000000
-0.0626671789 -0.0902241384 0.4000306031
0.0018157397 0.1808100005 0.4905339059
0.1193727865 0.1288225846 -0.4954139626
0.0961874152 0.0480209416 -0.5000000000
0.1461033811 0.0295076214 -0.5000000000
0.1335693345 0.0067932240 0.5000000000
-0.1063796105 -0.1714462550 -0.2429981856
0.0506592756 0.1417804440 -0.2649561630
-0.1173490432 0.0393612195 0.3884666787
-0.1468024016 -0.0476376471 -0.5000000000
-0.1965676432 -0.1525478717 -0.3493943274
0.1048170906 -0.1270175515 -0.5000000000
-0.1722124909 -0.0243768778 -0.0944051813
-0.1486679602 -0.0626560939 -0.5000000000
0.0445902819 -0.0189797877 0.5000000000
0.0619643027 -0.1547386597 -0.1178912143
-0.1544864752 -0.1138310870 -0.1099784459
0.1292934136 0.1512113658 0.5000000000
0.1357269842 0.1628413097 0.3720796609
-0.0410934031 -0.1761871634 -0.3196417085
-0.1845381853 0.1175163025 -0.2239524491
0.1930909377 0.0867254807 0.2226969750
-0.2270887306 -0.0482377820 -0.4919825631
0.1528510682 0.1529076875 0.1707880059
-0.0808024994 0.1333309125 -0.2211142131
-0.0438066811 -0.0077008814 -0.5000000000
-0.1659448029 0.1255859113 -0.3570702694
-0.1008488079 0.1307109802 -0.1918514710
0.2086611707 0.0234051986 0.3782559411
0.2159969784 -0.0247548079 0.0431528682
-0.0183300506 0.1558357627 0.1461357104
0.1070782670 -0.1672483771 -0.3070376554
0.0479559114 0.1859203059 0.5000000000
0.2281746527 -0.1552018593 -0.4966792157
-0.0431484421 0.1504059035 0.2066088355
0.2193891739 0.0693495696 -0.3904566153
-0.2000187427 -0.1165139492 -0.5000000000
-0.0096650348 -0.1781574820 -0.3584962425
-0.0546680125 -0.1741458700 -0.2856809608
-0.1196941838 0.0563651494 0.3633713665
0.2095502007 0.0517073348 -0.1630248313
-0.1802146150 -0.1839825734 -0.4255919117
0.1054267272 0.1378871276 -0.3462914079
-0.0300460205 -0.1709320365 -0.2478985965
-0.1450984229 -0.1471511047 -0.1182552246
0.1255728775 0.1393188620 -0.3234535142
-0.0073328972 0.1532085462 0.0415418236
-0.0280422736 -0.1201415481 -0.5000000000
0.0179568111 0.1739017459 0.3193711602
0.2237570576 -0.0391716237 -0.3479859019
0.1531140880 0.1382085876 -0.3387426751
0.1920127549 0.1090306629 -0.0955150390
-0.2142832754 0.0871251937 -0.5000000000
0.2161166314 -0.1826472676 -0.4600756171
-0.2214049887 -0.0338295383 -0.4516426410
0.0388561070 0.1701351276 0.2134114391
0.1960545236 0.0829466312 0.0322558369
0.0113141111 -0.1237683362 0.4208225335
0.2012763713 -0.0131408155 0.4646724356
-0.2273539045 0.1074553987 -0.4928172033
-0.0206877555 -0.0913916288 0.5000000000
0.1752160106 0.1253794779 0.4531045645
0.2078262043 0.0329894180 0.3957007878
0.1848488650 0.1052660730 0.1430741146
0.0905875454 0.1324059069 -0.4352266735
-0.1980090279 0.0739244009 -0.2587732389
-0.0685486470 0.1372203533 -0.0861005263
0.0655348316 -0.1701644909 -0.3047464397
-0.1543269617 0.0727487714 0.0840617871
0.2267035499 -0.0974581219 -0.4313290287
0.2107322440 0.0046464174 0.2894485929
0.0566974957 -0.1785710819 -0.5000000000
0.1816188444 -0.1486107303 -0.2300195417
0.2022716211 0.0707793681 -0.0670654324
0.1053856680 -0.1162467656 0.3302391820
-0.1548075295 0.0287043535 0.0846916898
0.2266024108 0.0429461942 -0.4765255615
0.1010973137 -0.1831816901 -0.4463737489
-0.1926935665 0.1115322853 -0.5000000000
0.0728592016 -0.1694686136 -0.3028086605
0.1997134527 0.0692424624 0.2299829755
0.2113321671 -0.0788908479 0.0946908643
0.0191734707 0.0079299777 -0.5000000000
-0.0368349789 0.1399221137 -0.1724812856
-0.1824573595 0.0459507329 -0.1331273902
-0.1372322467 0.1042285455 0.1386476153
0.2149775987 -0.1615927369 -0.3366490289
-0.2062324245 -0.0239176238 -0.3410101785
0.1874026799 0.0917693850 -0.5000000000
0.0722259087 0.1407285500 0.5000000000
0.2024631571 0.1306545637 -0.4624520179
-0.1595666662 0.1284612423 -0.4931737226
-0.0236656227 0.1581029321 0.5000000000
-0.1577270041 -0.1731314630 -0.5000000000
0.1708538520 -0.1572721791 -0.2789724178
0.2229512080 -0.1119021357 -0.2731064425
0.2265459855 -0.0793130910 -0.4297051326
0.2279781777 -0.1102982443 -0.4876247090
-0.1973754803 0.0544267504 -0.5000000000
-0.0528186066 -0.1611531519 -0.0933521408
-0.0820307543 -0.1523720827 0.0119420871
0.2043043286 0.0657612503 -0.0927637791
0.0031437892 0.1558320246 0.5000000000
-0.1578311499 0.0550676597 0.0632675879
-0.1601557071 -0.1324399793 -0.1634364924
0.0028015905 0.1791731221 0.4595267775
-0.1131193769 0.1292152302 -0.2667801390
0.1689732701 -0.0961249611 0.1822511149
0.1990992435 0.0705086881 0.1550572097
0.0808127132 -0.1303671000 0.1989546086
-0.1683086933 0.0220131361 -0.0264404104
0.0038262716 -0.1841676289 -0.4381691064
0.1182049202 -0.1418647141 -0.0784742724
-0.1562841945 0.0122956663 0.0629185981
-0.1650950639 -0.0274979294 -0.0461896936
0.1611221924 0.1342900385 -0.4039596863
-0.1168182604 0.0127474237 0.3789267483
0.0238182330 0.1626537792 0.5000000000
-0.1663690345 -0.1625652073 -0.2253352923
0.2279340578 -0.0773481444 -0.4876092494
0.0417957638 0.1546360507 -0.0396423227
0.2090885175 0.0338338597 0.0623558727
-0.2055249558 -0.0756725107 -0.3584221594
-0.0359527542 -0.1671620133 -0.1888752815
-0.0945839538 -0.0454092218 0.4087430433
-0.1794847730 0.1280761755 -0.4787007657
0.0230132140 0.1088727269 0.5000000000
0.0061216304 0.1647118264 0.2088804994
0.1685428791 0.1493027593 -0.1246415100
-0.1754087763 0.1190994159 -0.2237212169
0.2262101039 -0.0346488236 -0.4405218702
0.0643467720 0.1548031572 -0.0581773860
0.1134932281 0.1396282614 -0.3183540259
0.0030794001 -0.1872744904 -0.4751249256
-0.0563167134 0.0164124099 -0.5000000000
-0.0270539196 -0.1086455617 0.4421550197
-0.0377727202 0.1455265247 -0.0029767175
-0.0231717794 0.1682333898 0.4526314025
0.1954367908 0.1203029895 -0.1889451110
-0.1005247761 0.1299123776 -0.3772347963
0.1514689428 -0.1141182417 0.0974405107
-0.0482207437 0.1407613980 -0.0941268962
-0.1516580296 -0.0310344766 0.0454893253
0.2115683868 0.0112838137 0.2056833281
0.2038044065 0.0003824300 0.4735583928
-0.2217359464 -0.1623260393 -0.4692012664
0.0284844218 0.1368820954 -0.3395216564
0.2144317140 -0.0021186806 0.0478346865
0.1247390604 0.1706903399 0.3376021379
-0.1481779478 -0.0461217944 -0.5000000000
0.2134422289 -0.0043320485 0.1461174096
0.0039144243 0.1268356170 -0.5000000000
0.0390983564 -0.1491378627 0.0075449868
0.2106428365 -0.0212039308 0.2631325453
-0.1292064410 -0.1867565322 -0.4617871125
0.2254781976 -0.0244040677 -0.4248466171
0.0171536506 0.1308741830 -0.4523684973
-0.1094203870 0.1095076789 0.2774424283
-0.0563162988 -0.1642962962 -0.1391731776
-0.1156811894 -0.0459506875 0.2642875881
0.1645111542 -0.1863882533 -0.5000000000
0.2180535141 -0.0243908737 -0.0902882695
-0.1298764396 -0.1786356676 -0.3462660424
0.2072702028 0.1151972151 -0.3063971053
0.1408164801 -0.1834236045 -0.4549840321
0.1367803383 -0.1380258108 -0.0809613905
0.2060284088 0.0462956965 0.2323732706
-0.0816133804 -0.0607781085 0.4323096086
0.0635986302 0.1757202549 0.2737234449
0.2219855050 0.0783547671 -0.4297140554
0.2247338751 -0.1240124992 -0.3490623064
0.0128415399 -0.1217892647 0.4426125877
0.2109318037 0.1351370511 -0.3638562269
-0.0108920086 0.1414597839 -0.2011947783
0.2145681731 0.0094583706 -0.0786449917
0.1691859083 -0.1500866496 -0.2267307824
-0.1444254449 0.0262465516 -0.5000000000
0.1795698863 -0.1188056813 -0.0244098032
0.2133359993 -0.0645515389 0.0923014903
0.1968200549 0.0896882771 -0.0669807163
0.2007404725 0.0683997048 0.3331558722
0.2219287421 -0.0542822006 -0.2332641661
0.1402295399 0.1425293605 0.5000000000
-0.0173879382 -0.1853856933 -0.4499695631
-0.2062714923 0.1183118158 -0.3334743407
0.1753094082 0.1441000267 -0.2226591417
0.1167106288 0.1642578630 0.1038301613
0.1057761881 0.0123233191 -0.5000000000
0.2280876559 -0.0816695926 -0.4932219570
-0.1495348862 0.0332890334 0.1288189369
-0.0677103629 0.1388790918 0.3539865547
-0.0194490819 -0.1891213448 -0.4964702613
-0.0287296724 -0.1353338114 0.2513972030
0.2113473505 0.0306172701 -0.0798676163
-0.0890141880 -0.1145266070 0.1891723024
0.1972405587 -0.1494323647 -0.5000000000
0.2198609115 0.0627483010 -0.3907706136
0.1491161089 -0.1509154950 -0.5000000000
0.2225306173 -0.1297988945 -0.2774595617
0.1378364998 0.1550238486 -0.0477003595
-0.0638505432 -0.1787526172 -0.3506409414
-0.1648907728 -0.1583851560 -0.2148472366
-0.0508627906 0.1328038749 -0.3590424630
-0.0196477084 0.1622694139 0.2942939112
0.1391541571 0.1086110867 -0.5000000000
-0.0939238047 0.1297417658 -0.4177172787
0.0462004905 -0.1317269553 0.3041632257
0.1181724656 0.1336594305 -0.4160935178
-0.0551569625 0.1420672070 0.0146612327
0.1219652570 0.1032783481 -0.5000000000
-0.1354053142 0.0050659820 0.2210767973
-0.1565006194 0.1102016937 -0.0184796271
-0.1344191048 -0.0347652958 0.1615959120
0.0509818549 0.1442296707 -0.2231720416
0.2046965827 0.0587931350 -0.0411175221
0.2089764177 0.0763642273 -0.2470613094
0.0232175836 0.1344218985 -0.3838652542
-0.1010048610 0.0935034200 0.4333301062
0.1889641693 0.1054706391 0.4990400500
0.0933976350 -0.1621262529 -0.2455989403
0.2197776216 -0.0762963517 -0.1233342797
0.0278303931 0.1865601123 0.4824305832
0.2071552144 0.0820767951 -0.2334127665
-0.0249664728 0.1095628611 -0.5000000000
0.2168865943 0.0978114892 -0.3862671488
0.0530026411 -0.0217767492 -0.5000000000
0.1244911093 0.1465961475 -0.2030836690
0.2169773912 -0.1363042106 -0.1941831692
-0.0163268400 -0.0842035085 0.5000000000
0.2117636818 0.0417926502 -0.1784586864
-0.1226229264 -0.0672740267 0.1614741272
-0.0202731736 -0.1302253729 0.3136023897
0.2184748741 0.0009212329 -0.2341415362
-0.1114649995 -0.1823393966 -0.3982065451
0.2157286914 -0.0622276683 0.0339683617
-0.1420978486 0.0400831495 0.1902224059
0.2155788681 -0.0562675539 0.0476697746
-0.0898843190 0.1275104477 0.2334246899
0.2138428784 0.0549476464 -0.2778646738
0.1888226647 0.1219129119 -0.1127773083
-0.1453401860 -0.0848128684 -0.0111755400
0.0768498714 0.1715461858 0.2046232212
0.2150524114 -0.0440800659 -0.5000000000
0.0595636963 0.0019067565 0.5000000000
0.0370248923 -0.1662891455 -0.2345646900
-0.2090081455 -0.0043254723 -0.3550430833
-0.1695736728 -0.0253040606 -0.0762034727
0.0283690065 -0.1775213626 -0.3663004435
-0.0588976758 0.1445987666 0.2658278048
0.1945184235 -0.0771108798 0.1985981691
0.0336733516 -0.1786751888 -0.3819502997
-0.1617465758 0.1087040358 -0.0246529353
0.1944531884 0.0831598784 0.1776500234
0.2119234959 -0.0023684060 0.2367667169
-0.0993808082 -0.1246511301 -0.5000000000
0.1918650077 -0.1776182900 -0.4249813591
0.2209291502 -0.0464877392 -0.1944033466
-0.1217778213 0.0026458202 0.3264032842
0.0352245480 0.1648358646 0.1360117405
-0.2280052008 0.1179215855 -0.4979200994
0.1003100398 -0.1649469942 -0.2799955512
0.0812096366 -0.1222645152 0.3708049903
0.1860850191 0.1141376370 -0.0222304756
0.0029642924 0.0991749558 0.5000000000
-0.0705350265 0.1353054626 0.4024371760
0.0565340926 -0.1710784654 -0.3082927129
0.2238256368 0.0147424517 -0.4151764406
-0.0731486401 0.1361899055 -0.0925874949
-0.1380921958 0.0889809919 0.1914309110
0.1554849259 -0.0904550885 0.3246577965
-0.1188529325 -0.1797555247 -0.3611860527
-0.0744677807 -0.1662961892 -0.1672085169
0.2153540233 0.0225900115 -0.2057646178
-0.1438616108 0.0445484831 0.1762867813
-0.0028728042 0.1711011406 0.3571987900
-0.1251175869 -0.0170265444 0.2663242892
-0.1289073414 0.1071782325 -0.5000000000
0.0197643822 -0.1734391954 -0.3118717188
-0.0131604247 -0.1704527500 -0.2505296058
0.1773090794 0.1318425947 -0.4439670866
0.0500757290 -0.1426918406 0.0886032128
-0.1628319054 0.1088099677 -0.0305979779
-0.2241358473 0.0094893098 -0.4681505604
0.2051136586 0.0530972155 0.4591938838
0.1462803443 0.1418843986 -0.2776508668
-0.0751478408 -0.1656493029 -0.1578889568
-0.1204616976 0.0549298014 0.3582551161
0.2072084219 0.0437071468 0.0372878875
0.1889523919 0.1046686459 0.4829577287
0.1301254279 0.1395635997 -0.3191505388
0.1315467652 0.1669830363 0.2027610536
-0.1933334741 0.0095639250 -0.2299321533
0.2122701435 0.0387866668 -0.1790937021
-0.1935693346 -0.1872153908 -0.4701141012
-0.0005849779 0.1470571139 -0.1035590175
-0.0513503504 -0.1842925916 -0.5000000000
0.1503312856 -0.1274529852 -0.0189191393
0.0468384169 -0.1843518261 -0.4478199888
0.2104696560 -0.0824171428 0.1002146413
-0.1537972936 -0.1567725551 -0.1673603200
0.0770979640 0.1755130613 0.2702699878
-0.1108263096 0.1172981521 -0.5000000000
-0.1677749007 -0.0885503115 -0.1446560186
0.1600330970 -0.1711410738 -0.3702660180
-0.1194375200 -0.1611368234 -0.1167428022
0.0391090330 -0.1338976108 0.2781252302
-0.0138010046 -0.1632677915 -0.1434708281
0.1639295155 0.1295987322 -0.4824534887
-0.0211221146 0.0348325247 0.5000000000
-0.0764774866 0.1364199206 0.0318809399
-0.1027004734 -0.1757581378 -0.3034467079
-0.1817409332 -0.0778848047 -0.2145196455
-0.0534403565 0.1488757858 0.4477563356
-0.1745153326 0.0290889215 -0.5000000000
0.0486483973 -0.1261858739 0.4023423120
0.2123993559 0.0484190424 -0.2257778301
0.1806670855 0.1292551459 -0.0393942969
-0.1962730167 -0.1846849108 -0.4367541713
0.0554416912 -0.1048700752 0.5000000000
-0.0849495206 -0.1581400223 -0.0595266865
0.1102065285 -0.1456463765 -0.1011222202
0.1383517060 -0.1172089760 0.1188701740
0.1599262741 -0.1094342969 0.1072790436
-0.1700632893 0.0212962695 -0.0408146527
0.1410387289 0.1457454340 -0.2129251433
0.1240934666 -0.1065516827 0.3658389328
-0.1615318424 0.1281565908 -0.4714051599
0.1544061532 0.1532078564 -0.0628050444
-0.0025760033 -0.1673805628 -0.2136789138
0.1443703216 -0.1276082185 -0.0045434163
0.2074505413 0.0446522422 -0.0069420609
0.2211699036 -0.1315898121 -0.2401170803
0.1230323258 0.1689858092 0.2205599451
0.1123681478 0.1741975457 0.3157564544
-0.1038388653 0.1224349283 0.1636346137
-0.0726432483 -0.0747065219 0.4225027657
0.0766398628 -0.0966239794 -0.5000000000
0.0517330478 0.1313178881 -0.4497317201
-0.1327037892 -0.0519109914 -0.5000000000
0.1691567282 0.1497453886 -0.0195579139
-0.0881901919 -0.1231146084 0.1649666848
-0.0144406732 0.1350405997 -0.3440835792
0.2204478623 -0.0792627620 -0.1512194898
0.0479144549 0.1775768350 0.3142223238
0.1933130471 -0.1381761794 -0.1762115470
-0.0589423239 -0.1880765655 -0.4820470139
0.0124056206 0.1425697088 -0.2156815040
-0.1631726236 0.0638109814 0.0189807308
0.2026824891 0.0912768689 -0.1907183262
0.0463748986 -0.1669563958 -0.2518088801
-0.1870849524 0.0994865171 -0.1816050451
-0.1179283490 -0.0733369985 0.1728439173
-0.1636613779 0.0373214963 0.0162955065
-0.1367555484 0.0627634395 0.2264657026
-0.0739184809 -0.0561483246 0.4995729878
-0.0492873163 0.1406816482 -0.0902956395
0.1362976992 0.1629619888 0.1148858460
0.0319652714 0.1882775267 0.4981767058
-0.0048675034 -0.1477660316 0.0944231880
0.1591093751 -0.1329510822 -0.0840534681
-0.1422358690 -0.1419814616 -0.0982155635
0.1004102453 -0.1123054797 0.4898255507
-0.0341451515 -0.0629837016 0.5000000000
-0.1920698954 -0.0375072977 -0.2475853050
0.2028776127 0.0596916147 0.2739265656
0.0970340186 -0.1388992453 -0.5000000000
-0.0943897527 -0.1875275604 -0.4733392304
0.2243613772 -0.1640439678 -0.3685422000
-0.1324583202 -0.0224448239 0.2004839080
-0.1390433374 0.0740662568 -0.5000000000
-0.1723765991 -0.1623308021 -0.2499798743
0.2148047503 -0.0926801982 -0.0094276704
-0.0509073746 -0.1558649633 -0.0171385277
-0.1167151487 -0.0093313752 0.3460503750
0.1884248510 0.1298291972 -0.1404003225
-0.1145208896 -0.1570231470 -0.5000000000
-0.2129551385 -0.0586942294 -0.5000000000
-0.1363512723 0.1249659369 -0.1999046222
-0.0858000882 -0.0868981928 0.3023911959
0.1035347782 0.1785071601 0.3930582746
0.0105830345 -0.0330322579 0.5000000000
0.1949654155 -0.0458678805 0.3791026303
-0.0334007774 0.1471259085 0.0169302429
0.0525312642 -0.1741705005 -0.5000000000
0.0924263338 -0.1191691989 0.3684965449
0.2075051055 0.0577405000 -0.1368836271
0.1654176751 0.1406203108 -0.2934198510
0.0598568175 -0.0037033943 -0.5000000000
0.1752720346 0.1236017732 0.4099233252
0.1127891495 0.1337255929 -0.4148498173
-0.1348087452 0.0318645070 0.2471832746
0.0000156711 0.0225466371 0.5000000000
-0.0193389048 -0.0647966418 -0.5000000000
-0.1546786052 0.1199815838 -0.1615454553
0.0868645422 -0.0970425863 -0.5000000000
-0.1094455452 0.0256369556 0.4492000042
-0.0841966259 -0.0532933195 0.4468978596
-0.0746655400 -0.1699648808 -0.2201564134
-0.0806128910 0.1296733896 0.3328634428
0.0268863260 -0.1316836775 0.3300764584
0.2133693291 0.0027113488 0.1088207755
-0.1746570800 0.1243808866 -0.3413121318
-0.0626740026 -0.1837422266 -0.4219663215
0.2232033261 -0.0975978621 -0.2740157143
0.0249742870 -0.1021114735 0.5000000000
0.0549815295 -0.1540638555 -0.0968441969
-0.1029794017 0.0142745831 0.4927580183
0.2246870490 0.0753875387 -0.4600993324
0.0382914894 0.1407645280 -0.2747701872
0.0360845214 -0.1841172833 -0.4433942128
-0.0675034292 0.1364417374 -0.1423902330
-0.1728485730 -0.0234553009 -0.5000000000
-0.0282905691 -0.1606029856 -0.0926598665
-0.1157112809 0.0062251550 -0.5000000000
0.2097932650 0.0198397143 0.3060076113
-0.0450470612 0.1536447377 0.3739118293
-0.0724776319 -0.1381627291 0.1663562748
0.1966810139 -0.0724044407 0.2168728512
0.1014276259 0.1558178979 -0.0531080606
-0.1748510030 0.0544484666 -0.0719654825
0.1845062493 -0.0588833712 0.3816453869
0.0610480644 -0.1607111132 -0.1918257801
0.2033601080 0.0588784846 0.0396076077
-0.0792424859 0.1335602897 -0.2189938462
-0.1859414595 0.1223000393 -0.3165478315
-0.2167999804 -0.0333471164 -0.5000000000
-0.2042399445 -0.1292599737 -0.3753370752
-0.1724902536 -0.0808593911 -0.1624542014
-0.2234631537 0.0262501772 -0.4621745729
-0.1758617315 -0.1550367887 -0.2583803664
0.0570916120 0.1661880602 0.1282907713
0.1584907957 -0.0803644236 0.4338414784
0.1258279470 0.1303680741 -0.4701009706
-0.1161477791 -0.1757861582 -0.3047710888
-0.0902087985 0.0980647200 0.4975368139
-0.0067354131 0.0112098618 0.5000000000
0.1136607282 -0.1146965175 0.2947629801
0.1524135729 0.1574830855 0.0274822067
-0.1022759027 0.0050381577 0.4858047618
-0.0178803907 -0.0015017672 0.5000000000
-0.1381000562 0.0941969363 0.1844573231
0.0737829424 -0.0546254149 -0.5000000000
0.0282596884 -0.1568026638 -0.0924232170
0.0073685518 -0.1601073766 -0.5000000000
0.2195270308 0.0187399266 -0.3205852361
0.1156762203 0.1384070824 -0.3384272610
-0.1261213498 0.0068445741 0.2974042967
0.1010343517 -0.1269752116 0.1604679629
-0.0031333487 -0.1376339191 0.2445197411
