-0.3225089078 -0.0633003964 -0.2431948790 -0.6428705125 -0.0003781980 -0.7658251720
-0.4555762729 -0.0695158761 0.1388890156 0.0000000000 0.0000000000 1.0000000000
-0.4983720321 0.1544911893 0.0988071912 -0.9965018055 0.0007129702 -0.0829267354
-0.1330290186 0.0028622317 -0.1852822502 0.2301132472 0.0019241744 0.9729454935
-0.1584271716 0.2222224209 -0.2937271303 0.0000000000 1.0000000000 0.0000000000
0.2777775791 0.1440366937 0.2323398484 -1.0000000000 0.0000000000 0.0000000000
-0.2169789158 -0.1893629768 -0.3115546294 -0.4333372511 0.0013681623 -0.9011196597
-0.3203779308 -0.2142176797 -0.0634898183 0.7923581134 -0.0007357052 0.6098946726
-0.2014426067 0.2222224209 -0.2232908045 0.0000000000 1.0000000000 0.0000000000
0.3765055931 0.2222224209 -0.2909290817 0.0000000000 1.0000000000 0.0000000000
-0.0616512846 0.1202641245 -0.1943604272 0.0182487958 -0.0028115527 0.9997060658
-0.4188048655 0.2222224209 0.0919556868 0.0000000000 1.0000000000 0.0000000000
0.5000000000 -0.1977698015 -0.0306021116 1.0000000000 0.0000000000 0.0000000000
0.0157494765 0.1020947888 -0.1867137867 -0.2086547124 -0.0009462160 0.9778266921
0.4813990495 0.2222224209 -0.1546047567 0.0000000000 1.0000000000 0.0000000000
-0.4717262320 -0.1802718337 -0.0267782914 -0.9448697529 0.0013066108 -0.3274074160
0.5000000000 -0.0016525997 -0.0101394059 1.0000000000 0.0000000000 0.0000000000
-0.3046631215 0.0096947353 -0.0825953492 0.7414518587 0.0001255184 0.6707182024
0.1120172836 0.0784131745 -0.1492141051 -0.4929186470 0.0019691418 0.8699382839
-0.3707485700 0.1680609176 0.0304843470 0.9453160161 -0.0000112402 0.3254015593
0.3504335302 0.2222224209 0.2784342873 0.0000000000 1.0000000000 0.0000000000
0.5000000000 -0.1048538022 -0.2498641414 1.0000000000 0.0000000000 0.0000000000
-0.3253465884 0.1549584390 -0.2407453643 -0.6471447153 0.0018173303 -0.7622637744
0.5000000000 0.0022210781 0.0303761782 1.0000000000 0.0000000000 0.0000000000
0.1773509949 -0.1568501057 -0.3611114364 0.0000000000 0.0000000000 -1.0000000000
-0.3748944994 -0.1055545936 0.0434085537 0.9590979206 -0.0003303884 0.2822610756
-0.4214830657 0.1500411830 -0.1300730058 -0.8445038878 0.0001906962 -0.5354216648
0.2777775791 -0.0426622185 0.1540351180 -1.0000000000 0.0000000000 0.0000000000
-0.0246924683 0.0821144448 -0.3604841868 -0.0449568956 -0.0009478198 -0.9989357610
0.3526739404 -0.2222224209 -0.2991586613 0.0000000000 -1.0000000000 0.0000000000
-0.1127770240 -0.2222224209 -0.2936401204 0.0000000000 -1.0000000000 0.0000000000
-0.4073836060 0.0865744540 -0.1509848690 -0.8168685990 -0.0000487085 -0.5767110900
0.2726083851 0.0901905080 -0.3611114364 0.0000000000 0.0000000000 -1.0000000000
0.5000000000 0.0155784351 0.1412519171 1.0000000000 0.0000000000 0.0000000000
-0.3405949232 0.0697815516 -0.0339072191 0.8576332501 0.0001674230 0.5139674279
0.5000000000 -0.1967225532 0.2237057618 1.0000000000 0.0000000000 0.0000000000
0.1107237463 -0.2222224209 -0.3558115536 0.0000000000 -0.9000000000 -0.1000000000
-0.4519144293 0.1047570723 -0.0750511726 -0.9012586064 0.0007979328 -0.4330875130
-0.3021274440 0.1736530257 -0.0853948998 0.7411453140 0.0016306227 0.6711912530
0.0648671998 0.2222224209 -0.3006545269 0.0000000000 1.0000000000 0.0000000000
0.4667658037 0.2222224209 -0.0073333180 0.0000000000 1.0000000000 0.0000000000
0.2777775791 -0.0198251967 0.3030879919 -1.0000000000 0.0000000000 0.0000000000
-0.2559779035 -0.0124751723 -0.2905867257 -0.5115392662 0.0003936639 -0.8592257188
-0.4714832023 0.2222224209 0.0021022879 0.0000000000 1.0000000000 0.0000000000
0.4004830750 0.2222224209 -0.2849783392 0.0000000000 1.0000000000 0.0000000000
-0.3277556292 0.0318785877 -0.0534413024 0.8155005915 -0.0003923303 0.5785531410
0.3781170303 0.2222224209 -0.0597773063 0.0000000000 1.0000000000 0.0000000000
-0.0392145815 0.1148692805 -0.1940050620 -0.0429567969 0.0009362053 0.9989189635
0.4870962337 0.2222224209 -0.2921078896 0.0000000000 1.0000000000 0.0000000000
-0.2154117032 -0.1854076073 -0.1535601206 0.4831955282 -0.0000146847 0.8754346187
-0.2465382096 0.0048250716 -0.1342728735 0.5720218361 0.0009715616 0.8198690271
-0.0272396835 0.0118779014 -0.1932192753 -0.0897381366 -0.0019244688 0.9957990282
-0.2192642474 0.1994928742 -0.3104412670 -0.4346557196 -0.0015255744 -0.9005032451
-0.1518941265 -0.2222224209 -0.2813553863 0.0000000000 -1.0000000000 0.0000000000
-0.0222648819 0.0626269625 -0.1927618457 -0.0856038295 0.0010159883 0.9961718632
0.4875731134 -0.0759533183 0.3611114364 0.0000000000 0.0000000000 1.0000000000
0.2985563697 0.2222224209 0.2693034062 0.0000000000 1.0000000000 0.0000000000
-0.4998819412 0.2208411544 0.1294646987 -0.6997933693 0.3012909926 -0.0155124098
0.5000000000 -0.0331963198 0.3295906499 1.0000000000 0.0000000000 0.0000000000
0.5000000000 0.1181998591 -0.1532949314 1.0000000000 0.0000000000 0.0000000000
0.1869958216 0.0009029328 -0.3611114364 0.0000000000 0.0000000000 -1.0000000000
-0.3800449197 -0.2175269294 -0.1860160064 -0.3030465037 -0.6005927043 -0.2610375609
0.0576507258 -0.1385303340 -0.1745842954 -0.3401501857 -0.0009208162 0.9401780330
0.4647732156 0.2222224209 0.1371215854 0.0000000000 1.0000000000 0.0000000000
-0.3084019070 0.1895074062 -0.2546450943 -0.6159997085 -0.0017665175 -0.7876344503
0.0778107317 0.2222224209 -0.2325691371 0.0000000000 1.0000000000 0.0000000000
0.1681252943 -0.2222224209 -0.2284902109 0.0000000000 -1.0000000000 0.0000000000
0.2777775791 -0.2038203310 0.1508534066 -1.0000000000 0.0000000000 0.0000000000
-0.1740225335 0.2222224209 -0.2430263794 0.0000000000 1.0000000000 0.0000000000
0.1948636846 -0.1800056969 -0.3611114364 0.0000000000 0.0000000000 -1.0000000000
0.4616079425 0.2222224209 0.3351265896 0.0000000000 1.0000000000 0.0000000000
0.4344598581 0.2222224209 0.0203618413 0.0000000000 1.0000000000 0.0000000000
0.0311175372 -0.1446585683 -0.1829384298 -0.2684594617 0.0009330025 0.9631836175
0.5000000000 -0.1966798237 -0.3137291525 1.0000000000 0.0000000000 0.0000000000
0.2372834477 -0.0659872037 -0.3611114364 0.0000000000 0.0000000000 -1.0000000000
-0.3950483195 -0.2222224209 -0.1287023079 0.0000000000 -1.0000000000 0.0000000000
0.2169094510 0.2222224209 -0.2247540730 0.0000000000 1.0000000000 0.0000000000
-0.1298421201 -0.1289248699 -0.3439573947 -0.2623761381 -0.0011178731 -0.9648338432
0.4219337170 -0.2222224209 0.1411433538 0.0000000000 -1.0000000000 0.0000000000
0.2246936493 -0.1248364927 -0.3611114364 0.0000000000 0.0000000000 -1.0000000000
0.5000000000 0.0836738278 0.1351801783 1.0000000000 0.0000000000 0.0000000000
-0.0309808051 0.2188641578 -0.1935257529 -0.0465137748 0.3981436801 0.5981276748
-0.1204947433 -0.0064090750 -0.3463667724 -0.2411156816 0.0014461789 -0.9704017702
-0.3589510005 0.0884163397 -0.2091360338 -0.7161103043 0.0006256572 -0.6978899089
0.1348558213 0.1174621087 -0.1346779498 -0.5716088863 0.0017857755 0.8199843294
-0.4631512790 0.2151943430 -0.0494413092 -0.6493059749 0.3001783513 -0.2613916073
-0.1617431023 -0.1473956498 -0.3342246285 -0.3248193883 0.0000988802 -0.9457046104
-0.2545360745 -0.0363974284 -0.2914315818 -0.5077441863 -0.0017689082 -0.8613565982
0.5000000000 -0.0288943497 -0.1962738320 1.0000000000 0.0000000000 0.0000000000
0.5000000000 -0.2167787718 0.0429680075 0.7000000000 -0.3000000000 0.0000000000
0.3916249640 -0.0041112329 0.3611114364 0.0000000000 0.0000000000 1.0000000000
0.2061414255 -0.1065735996 -0.0675509761 -0.7795769763 -0.0002094578 0.6261793921
-0.4318195696 -0.2222224209 -0.1054434990 -0.1734309347 -0.8005340474 -0.0995828661
0.5000000000 0.0482899647 -0.1618904709 1.0000000000 0.0000000000 0.0000000000
0.2777775791 -0.1834728498 0.3122409925 -1.0000000000 0.0000000000 0.0000000000
0.4532342618 -0.2222224209 -0.3542496656 0.0000000000 -0.9000000000 -0.1000000000
0.4068011954 -0.2222224209 0.1808362128 0.0000000000 -1.0000000000 0.0000000000
-0.4318807224 0.0449888083 0.1388890156 0.0000000000 0.0000000000 1.0000000000
0.5000000000 0.0870411171 0.1181388525 1.0000000000 0.0000000000 0.0000000000
-0.3335388884 -0.1842267948 -0.0449968426 0.8322600699 0.0002006602 0.5541020509
0.5000000000 -0.0060128270 0.0459540364 1.0000000000 0.0000000000 0.0000000000
0.4467467738 -0.2222224209 -0.0665577444 0.0000000000 -1.0000000000 0.0000000000
-0.4232426664 -0.1938137512 -0.1272815964 -0.8442603570 0.0004213826 -0.5358225500
-0.4053408274 -0.2222224209 -0.1031566857 0.0000000000 -1.0000000000 0.0000000000
0.5000000000 0.0457910557 -0.0160978757 1.0000000000 0.0000000000 0.0000000000
-0.1221593049 0.2222224209 -0.2231256885 0.0000000000 1.0000000000 0.0000000000
0.1282107363 0.1109198793 -0.1392087309 -0.5471509859 0.0017054996 0.8365848130
-0.0244866586 -0.0813044076 -0.1929498034 -0.0898821747 0.0022213239 0.9957482474
0.0032114628 -0.1723801757 -0.3611114364 -0.0027523139 0.0003086277 -0.9999870785
0.5000000000 0.1669299749 0.0521358015 1.0000000000 0.0000000000 0.0000000000
-0.3410601937 0.1140167028 -0.0330614763 0.8610223203 -0.0001109375 0.5080594498
-0.2684308822 -0.1576338845 -0.2829343182 -0.5324624096 -0.0012291641 -0.8463163744
-0.1220712403 0.1260811133 -0.1876832176 0.1967257234 -0.0018732078 0.9802871679
0.4106751938 -0.2222224209 0.3297086958 0.0000000000 -1.0000000000 0.0000000000
-0.0305608112 0.2221121595 -0.3601388170 -0.0514820854 0.2012916369 -0.7982634689
0.3578037719 -0.2222224209 -0.0544389389 0.0000000000 -1.0000000000 0.0000000000
-0.2533662116 -0.0255070287 -0.1293910019 0.5930170185 0.0020042645 0.8049823933
-0.2584424346 0.0923108733 -0.1255678554 0.6073437297 0.0012665550 0.7942783269
0.5000000000 -0.1054856693 -0.0949924856 1.0000000000 0.0000000000 0.0000000000
-0.1767587323 0.2222224209 -0.2346430052 0.0000000000 1.0000000000 0.0000000000
0.3837433724 0.0886169567 0.3611114364 0.0000000000 0.0000000000 1.0000000000
0.2777775791 0.1946590672 0.2481667928 -1.0000000000 0.0000000000 0.0000000000
0.2777775791 -0.1389291073 0.2095748153 -1.0000000000 0.0000000000 0.0000000000
-0.3262128097 -0.1463745918 -0.2400265964 -0.6541914153 -0.0000166514 -0.7562555165
0.5000000000 0.0507620219 0.2728106168 1.0000000000 0.0000000000 0.0000000000
0.2405576114 -0.2222224209 -0.1564559228 0.0000000000 -1.0000000000 0.0000000000
0.3062489307 -0.2222224209 0.0440493603 0.0000000000 -1.0000000000 0.0000000000
0.3792607320 0.2222224209 -0.3011476645 0.0000000000 1.0000000000 0.0000000000
0.5000000000 -0.1268986891 -0.0310481522 1.0000000000 0.0000000000 0.0000000000
0.4890043160 -0.2222224209 0.1239051378 0.0000000000 -1.0000000000 0.0000000000
-0.2214797959 -0.2126221173 -0.3093729584 -0.4440043680 -0.0012110124 -0.8959548673
-0.4957784966 -0.0208473651 0.0742998990 -0.9915033011 0.0009583356 -0.1297703524
0.0268366896 -0.1344018092 -0.3611114364 0.0000000000 0.0000000000 -1.0000000000
0.4381027247 0.1162437600 -0.3611114364 0.0000000000 0.0000000000 -1.0000000000
-0.2548507801 -0.0307743754 -0.1282859378 0.6010078041 0.0030081346 0.7991215931
0.5000000000 0.0488996679 -0.1984354950 1.0000000000 0.0000000000 0.0000000000
-0.2467681914 0.0330770145 -0.2959360334 -0.4933101631 -0.0004720106 -0.8698014977
0.2777775791 0.1832288568 0.2891287128 -1.0000000000 0.0000000000 0.0000000000
-0.4996647266 -0.1737084100 0.1209622222 -0.9992751736 0.0007669148 -0.0347176240
0.2777775791 0.1703728751 0.3366499522 -1.0000000000 0.0000000000 0.0000000000
0.0760685273 -0.2222224209 -0.3302507661 0.0000000000 -1.0000000000 0.0000000000
0.2214348664 -0.2222224209 -0.2078410791 0.0000000000 -1.0000000000 0.0000000000
-0.0264387198 -0.1093060248 -0.1931403888 -0.0938687155 0.0009390028 0.9953557962
0.1125066745 0.1344001690 -0.1489281945 -0.5031211828 -0.0000283210 0.8639459108
0.3720690081 -0.2222224209 -0.2980783775 0.0000000000 -1.0000000000 0.0000000000
0.3760300855 -0.2222224209 0.2361298974 0.0000000000 -1.0000000000 0.0000000000
0.3159954964 0.2222224209 -0.1840071056 0.0000000000 1.0000000000 0.0000000000
0.0552294430 0.2222224209 -0.1819635211 -0.0298376480 0.8999339410 0.0954448029
0.4151976114 -0.0534284263 -0.3611114364 0.0000000000 0.0000000000 -1.0000000000
-0.4288821195 -0.2222224209 0.0962013721 0.0000000000 -1.0000000000 0.0000000000
0.0017324710 0.2222224209 -0.2109553769 0.0000000000 1.0000000000 0.0000000000
0.2000401980 -0.1204268889 -0.0750499880 -0.7649140156 -0.0009393106 0.6440135694
-0.3648414786 -0.0684436401 0.0146126151 0.9262970415 -0.0019244831 0.3761911681
-0.3098757533 -0.0933885871 -0.2535045405 -0.6244348952 -0.0009795711 -0.7810358758
0.4257040025 -0.1698613544 -0.3611114364 0.0000000000 0.0000000000 -1.0000000000
0.4936392179 0.2222224209 0.2123804616 0.2000000000 0.8000000000 0.0000000000
-0.3830718359 -0.1172881189 0.0773613380 0.9849104340 -0.0024643078 0.1721976217
-0.3445013446 0.0733363189 -0.2234447239 -0.6848470577 0.0010462930 -0.7285441225
-0.4871156245 0.0456380290 0.0261874095 -0.9749835588 -0.0005663783 -0.2220519470
-0.3334713482 -0.2222224209 -0.0705813441 0.0000000000 -1.0000000000 0.0000000000
0.2656994494 -0.0550879726 0.0500604991 -0.9646860734 -0.0014342266 0.2629268867
0.5000000000 -0.0295807665 0.1395629522 1.0000000000 0.0000000000 0.0000000000
0.0420981458 0.2222224209 -0.3126071421 0.0000000000 1.0000000000 0.0000000000
-0.4311307556 -0.2222224209 0.0473833341 0.0000000000 -1.0000000000 0.0000000000
-0.1169285464 0.0655331769 -0.3472345880 -0.2275011977 -0.0004381915 -0.9736450423
0.2739435554 -0.2013227338 0.0886247589 -0.9877289424 0.0036862278 0.1558000213
0.0817304440 0.1115526494 -0.3611114364 0.0000000000 0.0000000000 -1.0000000000
0.2341748341 -0.2216149923 -0.3611114364 0.0000000000 -0.5000000000 -0.5000000000
0.3531309262 0.2222224209 0.3518733320 0.0000000000 1.0000000000 0.0000000000
0.5000000000 0.1434478314 -0.1425858443 1.0000000000 0.0000000000 0.0000000000
-0.1093226990 -0.2222224209 -0.2340338554 0.0000000000 -1.0000000000 0.0000000000
0.4754653927 -0.2222224209 0.1221654726 0.0000000000 -1.0000000000 0.0000000000
0.5000000000 -0.1275121975 -0.3117156942 1.0000000000 0.0000000000 0.0000000000
-0.2754137063 -0.0665540691 -0.2784043621 -0.5493271786 -0.0002653898 -0.8354744220
0.5000000000 0.2011198212 0.0812068504 1.0000000000 0.0000000000 0.0000000000
-0.4623996319 0.0235523154 -0.0512779359 -0.9221774935 -0.0005948648 -0.3865904806
0.0717260343 -0.1921977277 -0.3611114364 0.0000000000 0.0000000000 -1.0000000000
-0.4138600156 0.2222224209 -0.0249377509 0.0000000000 1.0000000000 0.0000000000
-0.4212531479 -0.2222224209 0.0082446009 0.0000000000 -1.0000000000 0.0000000000
0.3377984605 -0.2222224209 0.3506013890 0.0000000000 -1.0000000000 0.0000000000
-0.1985396816 -0.2186768161 -0.1621988723 0.3079627574 -0.2989186537 0.6285035329
-0.1723445988 -0.0544454781 -0.3304668987 -0.3412533755 0.0002099318 -0.9398098854
0.0019483870 -0.2222224209 -0.2408931319 0.0000000000 -1.0000000000 0.0000000000
-0.2808831486 0.0310781738 -0.2747366232 -0.5555572352 0.0006306259 -0.8313781262
0.3042162897 -0.1005299771 0.3611114364 0.0000000000 0.0000000000 1.0000000000
0.5000000000 -0.0715871311 -0.0568234353 1.0000000000 0.0000000000 0.0000000000
0.5000000000 0.1053454066 0.2632341563 1.0000000000 0.0000000000 0.0000000000
0.5000000000 -0.0108294450 -0.3497633443 0.8000000000 0.0000000000 -0.2000000000
0.4922394510 -0.1575579946 -0.3611114364 0.0000000000 0.0000000000 -1.0000000000
0.3767868600 -0.2222224209 0.1887123248 0.0000000000 -1.0000000000 0.0000000000
0.4118298086 -0.2222224209 0.1942726907 0.0000000000 -1.0000000000 0.0000000000
0.3561180739 0.2222224209 -0.2296743141 0.0000000000 1.0000000000 0.0000000000
-0.0099987499 0.2222224209 -0.2895718748 0.0000000000 1.0000000000 0.0000000000
0.4593799407 -0.0435020251 -0.3611114364 0.0000000000 0.0000000000 -1.0000000000
0.5000000000 0.1396377926 0.0225947132 1.0000000000 0.0000000000 0.0000000000
-0.2697778306 -0.1424506611 -0.2820410488 -0.5385972868 -0.0002340657 -0.8424152890
-0.1126320038 0.1903846103 -0.3482567158 -0.2267204419 -0.0033641916 -0.9738660870
0.5000000000 -0.0921818441 -0.0025843928 1.0000000000 0.0000000000 0.0000000000
-0.4858992388 -0.1913180053 0.1388890156 0.0000000000 0.0000000000 1.0000000000
0.3059551428 0.2222224209 -0.2253696970 0.0000000000 1.0000000000 0.0000000000
-0.0861344189 0.1211090194 -0.1930211872 0.0813784344 0.0000021836 0.9965664323
-0.4202846066 -0.1291580171 -0.1318895745 -0.8432126010 -0.0005969948 -0.5373992058
0.4015222387 -0.2222224209 -0.0737042199 0.0000000000 -1.0000000000 0.0000000000
0.0035386731 -0.1591663896 -0.1891456045 -0.1828610994 -0.0018450125 0.9830095823
-0.1789538000 -0.0964412795 -0.3279743692 -0.3541029457 0.0009882266 -0.9351272221
0.2973394122 0.2222224209 0.1191081900 0.0000000000 1.0000000000 0.0000000000
0.5000000000 0.0153056304 -0.2625594270 1.0000000000 0.0000000000 0.0000000000
-0.0667243574 -0.1355741027 -0.1942392408 0.0244299224 -0.0027914219 0.9996336989
0.5000000000 0.1428006843 0.0079674591 1.0000000000 0.0000000000 0.0000000000
0.2477375539 0.1332139736 0.0006887073 -0.9087781019 -0.0022811968 0.4167656803
0.2777775791 -0.0770223154 0.1815912932 -1.0000000000 0.0000000000 0.0000000000
0.2771962522 -0.1433254069 0.1199328502 -0.9983303668 -0.0000628517 0.0548315387
0.0714551438 -0.1540709549 -0.1692440238 -0.3798268366 0.0009234284 0.9248345081
-0.0132275154 -0.2222224209 -0.3003954601 0.0000000000 -1.0000000000 0.0000000000
-0.1168857736 -0.2213605469 -0.3472566156 -0.1642906554 -0.3010698672 -0.6804140130
0.4121261408 -0.2222224209 0.2897092212 0.0000000000 -1.0000000000 0.0000000000
0.2777775791 -0.0832512542 0.2023499202 -1.0000000000 0.0000000000 0.0000000000
0.1534819991 -0.2222224209 -0.2967713952 0.0000000000 -1.0000000000 0.0000000000
0.3019448146 -0.2222224209 0.2272426924 0.0000000000 -1.0000000000 0.0000000000
0.1954836662 0.2222224209 -0.0872326849 -0.0746487621 0.8997227093 0.0665393525
0.2469835729 -0.2126222789 -0.0010244901 -0.9096549338 -0.0014054745 0.4150378787
0.0197519069 0.2222224209 -0.3031069413 0.0000000000 1.0000000000 0.0000000000
-0.4684076898 -0.1230133884 -0.0359690052 -0.9361124135 -0.0006609311 -0.3515931045
-0.1780793368 -0.0356494666 -0.3283015890 -0.3590925333 0.0010153126 -0.9332286675
-0.1668816283 -0.2122034752 -0.1752763180 0.3349568435 -0.0008143237 0.9420035580
-0.4211495345 -0.2222224209 0.1319229617 0.0000000000 -0.8000000000 0.2000000000
-0.4821590803 -0.0788538308 0.0065663817 -0.9652787269 0.0005947532 -0.2609971947
-0.0692216983 -0.1298484096 -0.3562835580 -0.1477748612 0.0005969471 -0.9889115074
-0.4754752178 0.1477599393 0.1388890156 0.0000000000 0.0000000000 1.0000000000
-0.4920113822 -0.0567659702 0.0499543600 -0.9846191563 -0.0015396453 -0.1741842959
0.0472371598 -0.2222224209 -0.2991507376 0.0000000000 -1.0000000000 0.0000000000
0.2414061679 0.0299535942 -0.0124701313 -0.8917660212 -0.0012737886 0.4522495347
-0.3816908706 0.2222224209 -0.0602339149 0.0000000000 1.0000000000 0.0000000000
0.3937032828 -0.2222224209 0.1948589082 0.0000000000 -1.0000000000 0.0000000000
-0.3436464987 -0.2062036718 -0.0287746755 0.8672726357 -0.0006670308 0.4975229599
0.3194303010 -0.2222224209 -0.1654002143 0.0000000000 -1.0000000000 0.0000000000
0.2792637153 0.2222224209 -0.2181085214 0.0000000000 1.0000000000 0.0000000000
0.2429237353 -0.1114554968 -0.0094887611 -0.8940626711 -0.0008955886 0.4476385583
0.1914628325 -0.0383930437 -0.0848960869 -0.7399716621 -0.0011141953 0.6724541281
0.1472126458 -0.1026614564 -0.3611114364 0.0000000000 0.0000000000 -1.0000000000
0.0784865100 -0.0908112642 -0.3611114364 0.0000000000 0.0000000000 -1.0000000000
-0.3855801755 0.2222224209 -0.0350661718 0.0000000000 1.0000000000 0.0000000000
0.5000000000 -0.0235727147 -0.1582074507 1.0000000000 0.0000000000 0.0000000000
0.0796190414 -0.2222224209 -0.2159124290 0.0000000000 -1.0000000000 0.0000000000
-0.0885414612 -0.0164685325 -0.1927842832 0.0964373023 0.0009628800 0.9952013931
0.2777775791 0.1026273507 0.2082288217 -1.0000000000 0.0000000000 0.0000000000
-0.4466991755 0.0411078610 0.1388890156 0.0000000000 0.0000000000 1.0000000000
-0.2848119271 -0.1359806279 -0.1030548502 0.6872990910 -0.0001289667 0.7261296438
-0.2574822035 -0.2222224209 -0.1770956717 0.0000000000 -1.0000000000 0.0000000000
0.5000000000 0.1072539005 -0.0856560294 1.0000000000 0.0000000000 0.0000000000
0.0898681441 -0.0048726532 -0.1610270279 -0.4371000219 0.0018450371 0.8993107830
0.4949835222 -0.0604795938 0.3611114364 0.5000000000 0.0000000000 0.5000000000
0.2777775791 0.1654320770 0.2327774032 -1.0000000000 0.0000000000 0.0000000000
0.2777775791 -0.1053491284 0.3398598187 -1.0000000000 0.0000000000 0.0000000000
-0.2534615854 0.0456530389 -0.1292783066 0.5974163912 -0.0010921136 0.8015254472
-0.4709321042 -0.0587752478 -0.0290783971 -0.9420083261 0.0014151972 -0.3354520204
0.2358548674 -0.0624553217 -0.0229199344 -0.8763043570 -0.0005407496 0.4814511650
-0.4273773548 -0.1620088487 -0.1206119022 -0.8521331434 -0.0005050215 -0.5231996532
-0.0135072539 0.0091938625 -0.1917626982 -0.1130957381 0.0009611588 0.9935419889
-0.4170726604 -0.1308250285 -0.1368703088 -0.8345288442 -0.0004764447 -0.5508631373
0.4724559619 -0.2222224209 0.1724031796 0.0000000000 -1.0000000000 0.0000000000
-0.4412078191 0.2222224209 0.0297681530 0.0000000000 1.0000000000 0.0000000000
-0.0793630953 -0.0961227802 -0.3547517010 -0.1607059020 0.0002808917 -0.9869097690
-0.4394554570 0.0735358364 -0.0995783190 -0.8796896647 0.0001301453 -0.4754196196
-0.3552918437 -0.2222224209 -0.1728188816 0.0000000000 -1.0000000000 0.0000000000
0.5000000000 0.1766682073 0.2575531627 1.0000000000 0.0000000000 0.0000000000
-0.4953494623 0.1847642409 0.0709431981 -0.9903748112 0.0006688290 -0.1379209860
-0.0068898342 0.0274865729 -0.1908617532 -0.1425223086 -0.0000005911 0.9896225643
0.2776801796 0.0037872276 0.1342310919 -0.9998559422 0.0009422546 0.0140183734
-0.0754855775 -0.2222224209 -0.2648775356 0.0000000000 -1.0000000000 0.0000000000
-0.4941750034 0.1491545538 0.0628656668 -0.9889784441 0.0001023592 -0.1478108989
0.3562643331 0.0480910138 -0.3611114364 0.0000000000 0.0000000000 -1.0000000000
0.4954945945 0.2222224209 0.2061116795 0.5000000000 0.5000000000 0.0000000000
0.2110995568 0.1837379865 -0.3611114364 0.0000000000 0.0000000000 -1.0000000000
0.0516397912 0.2222224209 -0.3470453423 0.0000000000 1.0000000000 0.0000000000
-0.4339116830 0.0265023772 0.1388890156 0.0000000000 0.0000000000 1.0000000000
-0.0243424500 -0.2222224209 -0.2740622911 0.0000000000 -1.0000000000 0.0000000000
0.2777775791 0.1335420614 0.3071342946 -1.0000000000 0.0000000000 0.0000000000
0.0014289608 -0.0721835503 -0.3611114364 -0.0019463587 0.0000870588 -0.9999893009
0.5000000000 -0.0838495338 0.3551960762 0.4000000000 0.0000000000 0.6000000000
0.2777775791 0.0972696496 0.2912187615 -1.0000000000 0.0000000000 0.0000000000
0.2753261619 -0.0472000939 0.0986357116 -0.9920311842 -0.0004319029 0.1250853627
0.5000000000 0.0660911694 -0.3163438115 1.0000000000 0.0000000000 0.0000000000
0.5000000000 0.0519639813 0.1247938291 1.0000000000 0.0000000000 0.0000000000
-0.4987231495 -0.0217224578 0.1388890156 -0.1999696510 -0.0000305408 0.7967744128
-0.2460970190 -0.0671671954 -0.1346007817 0.5773278414 0.0017418239 0.8163791821
-0.2476321141 -0.2222224209 -0.2444360086 0.0000000000 -1.0000000000 0.0000000000
0.5000000000 0.2178642953 -0.0860758879 0.8000000000 0.2000000000 0.0000000000
0.2693273496 0.1058330092 0.0643585984 -0.9730378907 0.0029570208 0.2294620906
-0.4725387876 0.2222224209 0.0964887535 0.0000000000 1.0000000000 0.0000000000
0.5000000000 -0.1479626463 0.0910128977 1.0000000000 0.0000000000 0.0000000000
0.3932825635 0.2216059568 0.3611114364 0.0000000000 0.7000000000 0.3000000000
-0.2744108675 0.2222224209 -0.1976549713 0.0000000000 1.0000000000 0.0000000000
-0.3324953555 -0.2222224209 -0.1028634866 0.0000000000 -1.0000000000 0.0000000000
-0.1646195142 -0.2222224209 -0.1804078669 0.0918932613 -0.6982049489 0.2855273860
0.5000000000 -0.0340180275 -0.3272567342 1.0000000000 0.0000000000 0.0000000000
0.4070650602 -0.2222224209 -0.0494766901 0.0000000000 -1.0000000000 0.0000000000
0.3142961277 0.2222224209 0.0803390051 0.0000000000 1.0000000000 0.0000000000
-0.1205608402 0.2136857570 -0.1880388076 0.1815957106 0.1024747063 0.8813253059
-0.2846512399 -0.0494417256 -0.1032065856 0.6899055175 -0.0033311928 0.7235086613
0.5000000000 0.0113520880 -0.1212599068 1.0000000000 0.0000000000 0.0000000000
0.5000000000 -0.1972012556 0.1991888579 1.0000000000 0.0000000000 0.0000000000
-0.3087110471 -0.2222224209 -0.2508203116 -0.1864750295 -0.6999568190 -0.2349978168
-0.4884736047 0.2098748495 0.0322237382 -0.9773286504 0.0005781463 -0.2115922251
-0.0015807306 -0.1184070853 -0.3610909530 -0.0067795927 0.0005239602 -0.9999534628
0.2842299908 -0.2222224209 0.3548829501 -0.2000000000 -0.7000000000 0.1000000000
0.5000000000 -0.0366634984 -0.3540634579 0.9000000000 0.0000000000 -0.1000000000
-0.2811324274 -0.2222224209 -0.1770531552 0.0000000000 -1.0000000000 0.0000000000
0.2777775791 -0.0259567115 0.2942604963 -1.0000000000 0.0000000000 0.0000000000
0.5000000000 -0.1583781426 -0.3199580133 1.0000000000 0.0000000000 0.0000000000
0.3419646377 -0.2222224209 0.2993000279 0.0000000000 -1.0000000000 0.0000000000
0.5000000000 -0.0761871048 -0.0765731498 1.0000000000 0.0000000000 0.0000000000
0.2859674084 -0.1935170730 0.3611114364 -0.3000000000 0.0000000000 0.7000000000
0.5000000000 -0.1203842570 -0.3225266375 1.0000000000 0.0000000000 0.0000000000
-0.3941721987 -0.2222224209 0.1127191868 0.1991634946 -0.7995372418 0.0181897130
0.2732354793 0.2222224209 -0.1654329495 0.0000000000 1.0000000000 0.0000000000
0.2777775791 -0.1561351907 0.2884845231 -1.0000000000 0.0000000000 0.0000000000
-0.4797725961 -0.2134350815 -0.0018085021 -0.8634036967 -0.0999591145 -0.2537591234
0.3607872084 -0.0469763436 -0.3611114364 0.0000000000 0.0000000000 -1.0000000000
-0.3068703734 -0.2222224209 -0.0953240447 0.0000000000 -1.0000000000 0.0000000000
0.3403445800 0.2222224209 0.3093645848 0.0000000000 1.0000000000 0.0000000000
0.1354613261 0.2222224209 -0.2506524986 0.0000000000 1.0000000000 0.0000000000
0.3980639078 0.2222224209 0.2427656303 0.0000000000 1.0000000000 0.0000000000
0.1466548678 0.2222224209 -0.1779434958 0.0000000000 1.0000000000 0.0000000000
0.0877076766 0.0840842182 -0.3611114364 0.0000000000 0.0000000000 -1.0000000000
-0.2984939865 0.2222224209 -0.1823677662 0.0000000000 1.0000000000 0.0000000000
0.2776447031 -0.1467079786 0.1309969307 -0.9995078782 0.0000861450 0.0271855555
-0.3622901396 -0.1169039559 0.0084800080 0.9214590559 -0.0007227032 0.3880245055
-0.2061330372 -0.0534967573 -0.1584459943 0.4502232595 -0.0001427575 0.8927777767
0.2777775791 0.0798237126 0.2817602168 -1.0000000000 0.0000000000 0.0000000000
0.4143698787 0.1627438924 -0.3611114364 0.0000000000 0.0000000000 -1.0000000000
-0.4973732701 0.0778309720 0.0877462982 -0.9954954393 -0.0009303266 -0.0942127185
0.2689804813 0.0854278797 0.0629531737 -0.9739778143 -0.0035746018 0.2259194347
0.2698327188 0.2222224209 -0.2960644215 0.0000000000 1.0000000000 0.0000000000
-0.3900156384 -0.0484711071 -0.1739521277 -0.7747544665 -0.0007602704 -0.6320766426
0.4047196868 -0.2222224209 -0.2646501053 0.0000000000 -1.0000000000 0.0000000000
-0.3733971120 0.2222224209 -0.0679968326 0.0000000000 1.0000000000 0.0000000000
-0.0577649624 -0.1084954506 -0.3577419860 -0.1169510933 -0.0002850894 -0.9930241918
-0.4620521425 0.2222224209 -0.0483052188 -0.4626194964 0.5007488706 -0.1896053267
0.4329561771 -0.0442649766 0.3611114364 0.0000000000 0.0000000000 1.0000000000
0.1472163316 -0.0441351850 -0.1256285509 -0.6135952081 0.0000554018 0.7895109937
-0.2459686828 -0.0931822253 -0.2964210519 -0.4934007986 -0.0013177976 -0.8697506031
0.1759605318 0.2188351848 -0.1008724265 -0.4880219453 0.2984733181 0.5017572210
0.5000000000 -0.0294271993 0.1723774184 1.0000000000 0.0000000000 0.0000000000
-0.3846210429 0.1029019019 0.0857596641 0.9884656337 0.0010755792 0.1507760607
-0.4574388886 0.0948609784 -0.0629697367 -0.9146021781 -0.0000195665 -0.4041850170
0.5000000000 -0.1542851881 -0.2816358918 1.0000000000 0.0000000000 0.0000000000
-0.1220075004 0.0507761685 -0.3459882276 -0.2385900162 -0.0005254112 -0.9710495126
0.0072756486 0.0342413704 -0.3611114364 0.0000000000 0.0000000000 -1.0000000000
0.5000000000 -0.0141084473 -0.1264249080 1.0000000000 0.0000000000 0.0000000000
0.4401113957 -0.1213739707 -0.3611114364 0.0000000000 0.0000000000 -1.0000000000
-0.3606463540 -0.0307462472 -0.2073853022 -0.7230891992 0.0018839040 -0.6906255542
0.4903549830 -0.2222224209 0.0467163883 0.1000000000 -0.9000000000 0.0000000000
0.5000000000 -0.0877679905 0.0944930719 1.0000000000 0.0000000000 0.0000000000
-0.3658823049 -0.2222224209 -0.0507630705 0.0000000000 -1.0000000000 0.0000000000
0.5000000000 0.1966971900 -0.0013304585 1.0000000000 0.0000000000 0.0000000000
0.1483760604 0.2222224209 -0.2856853251 0.0000000000 1.0000000000 0.0000000000
0.4238158816 -0.2222224209 0.2467409198 0.0000000000 -1.0000000000 0.0000000000
-0.2829491932 0.0456592149 -0.1047990837 0.6810673068 0.0036155686 0.7319186417
0.5000000000 -0.1175432268 -0.3541563222 0.8000000000 0.0000000000 -0.2000000000
0.4622944798 -0.2222224209 0.1290006014 0.0000000000 -1.0000000000 0.0000000000
0.3502265745 0.1099379055 -0.3611114364 0.0000000000 0.0000000000 -1.0000000000
-0.2688338478 -0.1580563949 -0.1172186603 0.6359305317 0.0003303793 0.7715401486
-0.4395295286 -0.1989279624 -0.0994473945 -0.8803564238 0.0009224299 -0.4742495817
-0.4450149227 -0.0793016783 -0.0890106199 -0.8925945695 -0.0003095788 -0.4507078445
-0.3840445326 0.1035404816 0.0823820444 0.9871694103 -0.0001262122 0.1586090481
0.2950569158 0.2222224209 -0.2795012650 0.0000000000 1.0000000000 0.0000000000
0.3945737416 0.2222224209 -0.0980662598 0.0000000000 1.0000000000 0.0000000000
0.5000000000 -0.0496212797 0.2881460760 1.0000000000 0.0000000000 0.0000000000
0.1947810874 0.1593579331 -0.0811418316 -0.7481749789 -0.0012598403 0.6631213442
0.4515316620 -0.0464334553 0.3611114364 0.0000000000 0.0000000000 1.0000000000
0.2777775791 -0.0725735799 0.2703959831 -1.0000000000 0.0000000000 0.0000000000
0.4048921454 -0.2222224209 0.0458684469 0.0000000000 -1.0000000000 0.0000000000
0.2777775791 -0.0602767719 0.2499254360 -1.0000000000 0.0000000000 0.0000000000
0.5000000000 0.1638763403 0.0685775555 1.0000000000 0.0000000000 0.0000000000
0.4162004815 -0.2222224209 -0.2636025524 0.0000000000 -1.0000000000 0.0000000000
0.4660161740 0.2222224209 0.0114651563 0.0000000000 1.0000000000 0.0000000000
0.5000000000 0.0147679528 -0.2282247023 1.0000000000 0.0000000000 0.0000000000
0.2777775791 -0.1005614223 0.1735706514 -1.0000000000 0.0000000000 0.0000000000
-0.2793824195 -0.2222224209 -0.1657662629 0.0000000000 -1.0000000000 0.0000000000
0.2777775791 -0.1785254322 0.3108940570 -1.0000000000 0.0000000000 0.0000000000
-0.4854771314 0.1923330729 0.0193421361 -0.9707552980 -0.0005138299 -0.2397907690
-0.3584434646 0.1405459336 -0.0002410579 0.9084335250 -0.0010782090 0.4173971101
0.4994918758 0.0229415273 0.3611114364 0.6000000000 0.0000000000 0.4000000000
-0.3640980393 -0.1017328493 0.0128702507 0.9237667508 -0.0019755930 0.3826004269
-0.2748618930 0.0135400755 -0.2787578995 -0.5486566143 -0.0005379667 -0.8360051515
-0.3795648909 0.0796754245 0.0606179032 0.9706501225 0.0007645597 0.2395679417
0.3397653524 0.2222224209 -0.0359001913 0.0000000000 1.0000000000 0.0000000000
0.3635509951 0.2222224209 -0.0874413929 0.0000000000 1.0000000000 0.0000000000
0.1606651232 -0.0026230547 -0.1147446193 -0.6434679749 -0.0017398452 0.7651491356
0.4521884112 0.1241583377 0.3611114364 0.0000000000 0.0000000000 1.0000000000
-0.3886022612 0.1836639714 0.1253706595 0.9993200466 0.0021593989 0.0335234886
0.2239863774 0.2222224209 -0.0969314962 0.0000000000 1.0000000000 0.0000000000
-0.4452354646 0.2222224209 -0.0521831503 0.0000000000 1.0000000000 0.0000000000
-0.0783926700 0.2222224209 -0.2559031281 0.0000000000 1.0000000000 0.0000000000
0.2777775791 0.0833915389 0.3397950210 -1.0000000000 0.0000000000 0.0000000000
0.3661501833 0.1667953001 -0.3611114364 0.0000000000 0.0000000000 -1.0000000000
0.5000000000 0.1107567935 0.1974969746 1.0000000000 0.0000000000 0.0000000000
0.5000000000 0.0843605444 -0.0231657315 1.0000000000 0.0000000000 0.0000000000
0.2802372587 0.2222224209 0.1734235648 -0.3000000000 0.7000000000 0.0000000000
0.4020618856 -0.0164048822 -0.3611114364 0.0000000000 0.0000000000 -1.0000000000
-0.4329904618 -0.0422884746 -0.1111231640 -0.8674241644 -0.0004827756 -0.4974501739
-0.1392638213 0.0383752233 -0.3413026165 -0.2826685206 0.0003110057 -0.9591474814
0.1564668912 -0.1188084963 -0.1182923653 -0.6425296040 0.0003844451 0.7660390798
0.4383744982 0.1235928030 0.3611114364 0.0000000000 0.0000000000 1.0000000000
0.5000000000 -0.1137091656 -0.0987864522 1.0000000000 0.0000000000 0.0000000000
0.5000000000 0.2070653004 0.1905101610 1.0000000000 0.0000000000 0.0000000000
0.1701654005 -0.0159484893 -0.1063673318 -0.6805744049 0.0025766710 0.7323950443
0.1913276559 0.2222224209 -0.2323690226 0.0000000000 1.0000000000 0.0000000000
0.2777775791 -0.1978757984 0.2538038983 -1.0000000000 0.0000000000 0.0000000000
-0.4769670182 0.1118995851 -0.0110607233 -0.9540867153 0.0006701365 -0.2993237583
-0.2247122792 0.1618345085 -0.3077571345 -0.4487089298 -0.0001487342 -0.8936162796
-0.4247715715 -0.0712495915 -0.1248565935 -0.8491789844 -0.0002034572 -0.5280389171
0.5000000000 -0.0178188865 -0.1350070557 1.0000000000 0.0000000000 0.0000000000
0.2777775791 -0.1117973413 0.2127988369 -1.0000000000 0.0000000000 0.0000000000
0.5000000000 0.1911735631 -0.0517617750 1.0000000000 0.0000000000 0.0000000000
0.2822068481 0.2222224209 -0.1429702171 0.0000000000 1.0000000000 0.0000000000
0.4557543194 -0.1043483081 0.3611114364 0.0000000000 0.0000000000 1.0000000000
0.0075247611 0.2222224209 -0.3231889632 0.0000000000 1.0000000000 0.0000000000
-0.1494510596 0.1857870547 -0.3382155105 -0.3015574917 -0.0014066896 -0.9533473518
0.5000000000 0.0505469625 0.0562816955 1.0000000000 0.0000000000 0.0000000000
0.2777775791 -0.1343535421 0.1817581617 -1.0000000000 0.0000000000 0.0000000000
0.2777775791 -0.0718961735 0.2607755597 -1.0000000000 0.0000000000 0.0000000000
-0.4910990739 -0.0490182503 0.1388890156 0.0000000000 0.0000000000 1.0000000000
0.4436616396 -0.2222224209 -0.0636025927 0.0000000000 -1.0000000000 0.0000000000
0.2919727164 0.2222224209 -0.3269221364 0.0000000000 1.0000000000 0.0000000000
0.5000000000 0.1540402793 0.3358036714 1.0000000000 0.0000000000 0.0000000000
0.1742346143 -0.0640329003 -0.3611114364 0.0000000000 0.0000000000 -1.0000000000
0.2224710344 -0.0045036692 -0.0449527246 -0.8289099776 0.0009803117 0.5591476542
0.2153502440 -0.0522088423 -0.3611114364 0.0000000000 0.0000000000 -1.0000000000
-0.4174578635 0.2222224209 0.0642344587 0.0000000000 1.0000000000 0.0000000000
0.2659557557 -0.0853238541 0.0509504722 -0.9638337317 0.0020098328 0.2659636507
-0.0775453976 0.1215363798 -0.1936957722 0.0613953087 -0.0018731898 0.9979100883
0.4522764397 0.2222224209 0.3029819091 0.0000000000 1.0000000000 0.0000000000
0.3511335397 0.0482615817 0.3611114364 0.0000000000 0.0000000000 1.0000000000
0.2632571677 0.2222224209 -0.0012946716 0.0000000000 1.0000000000 0.0000000000
0.2487205522 -0.2222224209 -0.3244559386 0.0000000000 -1.0000000000 0.0000000000
0.3068520929 -0.2222224209 -0.1510082877 0.0000000000 -1.0000000000 0.0000000000
0.2088932008 -0.0940506704 -0.0640129965 -0.7930827367 0.0010931633 0.6089524932
-0.3816144929 0.2222224209 0.0290892796 0.2839171892 0.6988592921 0.0968680636
0.5000000000 -0.1975635775 -0.3458705378 1.0000000000 0.0000000000 0.0000000000
-0.1517339848 -0.1568575734 -0.1802568259 0.2858630049 -0.0018509707 0.9580178490
0.2127090472 -0.1733516175 -0.0588831068 -0.8012123245 -0.0003159645 0.5983057243
0.5000000000 -0.1002280260 -0.1458168386 1.0000000000 0.0000000000 0.0000000000
0.1778157907 -0.1510171698 -0.0990747079 -0.6958451831 -0.0017802790 0.7179030545
-0.4802981569 -0.0832085794 0.1388890156 0.0000000000 0.0000000000 1.0000000000
0.2777775791 0.0846477395 0.1463112088 -1.0000000000 0.0000000000 0.0000000000
0.2777775791 -0.1721036531 0.2468592780 -1.0000000000 0.0000000000 0.0000000000
0.2831728061 -0.1085144908 0.3611114364 -0.6000000000 0.0000000000 0.4000000000
0.2880406897 0.1076502435 0.3611114364 0.0000000000 0.0000000000 1.0000000000
0.3457702569 -0.0168566901 -0.3611114364 0.0000000000 0.0000000000 -1.0000000000
-0.4854285762 0.2201717607 0.0191271478 -0.5815415902 0.4020888813 -0.1476239939
0.4009412351 -0.2222224209 -0.2138071262 0.0000000000 -1.0000000000 0.0000000000
-0.4975765266 0.1657707630 0.1388890156 -0.4999723369 -0.0003979981 0.4947679970
-0.1514452537 -0.1686077471 -0.3376013830 -0.3064530282 -0.0010752771 -0.9517609673
0.2689612655 -0.0888207876 -0.3611114364 0.0000000000 0.0000000000 -1.0000000000
-0.2638786780 -0.2222224209 -0.1377549946 0.0000000000 -1.0000000000 0.0000000000
-0.4846693454 -0.1439710241 0.0161298192 -0.9691997649 0.0011718890 -0.2461050767
0.2777775791 0.0013600973 0.1957805926 -1.0000000000 0.0000000000 0.0000000000
-0.4333342838 0.1031901586 -0.1104944515 -0.8647976695 -0.0000278426 -0.5019133283
-0.3636573786 -0.1330791940 0.0117084363 0.9259702333 0.0000873604 0.3771750508
0.1772587902 0.0673806110 -0.3611114364 0.0000000000 0.0000000000 -1.0000000000
0.0479900000 -0.0814418309 -0.3611114364 0.0000000000 0.0000000000 -1.0000000000
0.2777775791 -0.2109130136 0.3236519401 -1.0000000000 0.0000000000 0.0000000000
-0.4612569111 -0.0596195433 -0.0540801426 -0.9224107894 -0.0002397581 -0.3859762829
-0.1783601604 0.2222224209 -0.2964885651 0.0000000000 1.0000000000 0.0000000000
-0.2842751131 -0.1424024231 -0.2724127480 -0.5658997186 -0.0006718580 -0.8243843284
-0.4963572075 -0.0051899294 0.0788542877 -0.9939215004 0.0002654653 -0.1096562684
0.2388221603 0.2001368311 -0.3611114364 0.0000000000 0.0000000000 -1.0000000000
0.4745755687 0.0418350544 0.3611114364 0.0000000000 0.0000000000 1.0000000000
0.2608053314 0.1166503749 0.0338903500 -0.9500854647 -0.0006733371 0.3115850678
0.4540186639 0.1745423767 0.3611114364 0.0000000000 0.0000000000 1.0000000000
-0.4158548762 -0.1678845763 0.1388890156 0.0000000000 0.0000000000 1.0000000000
0.1687612176 -0.1251973989 -0.3611114364 0.0000000000 0.0000000000 -1.0000000000
-0.3819254672 0.2098932777 0.0711353954 0.9784857409 -0.0008420195 0.2057267435
0.5000000000 -0.1054929642 -0.2804535914 1.0000000000 0.0000000000 0.0000000000
0.2791414017 -0.2222224209 0.0804015889 -0.4922083227 -0.4977415507 0.0878969081
0.5000000000 -0.1598098957 -0.1677994621 1.0000000000 0.0000000000 0.0000000000
-0.0117985984 0.0627825711 -0.3609712068 -0.0302199160 -0.0005702611 -0.9994815771
-0.2776823107 0.0809551790 -0.2769126800 -0.5575708330 0.0000049875 -0.8300498609
-0.4998657710 -0.0197951371 0.1277374580 -0.9996178105 0.0019585034 -0.0258108042
-0.0707317986 -0.2222224209 -0.1947979100 0.0159804012 -0.5981430595 0.3996237619
0.5000000000 -0.0634540662 0.1807823951 1.0000000000 0.0000000000 0.0000000000
0.5000000000 -0.1905823946 -0.1358128556 1.0000000000 0.0000000000 0.0000000000
0.3950392115 -0.2222224209 0.1683193618 0.0000000000 -1.0000000000 0.0000000000
0.4255883174 0.1015988340 -0.3611114364 0.0000000000 0.0000000000 -1.0000000000
-0.3505125394 -0.1829798595 -0.2176295696 -0.7007002920 -0.0006157285 -0.7133942070
-0.0405396256 -0.1916784903 -0.3594409778 -0.0790434852 -0.0007421776 -0.9967733494
0.5000000000 0.1792001721 -0.3068442950 1.0000000000 0.0000000000 0.0000000000
-0.3660166543 -0.1386928498 0.0175779264 0.9315264396 0.0016080702 0.3630815803
0.4994549314 -0.2222224209 0.1333161412 0.7000000000 -0.3000000000 0.0000000000
0.4780080488 -0.0564113839 0.3611114364 0.0000000000 0.0000000000 1.0000000000
-0.2016833160 -0.0519702672 -0.1606493069 0.4431759021 0.0011320001 0.8962577365
-0.4839570114 0.2161206645 0.0132796521 -0.7749297264 0.2011462525 -0.1986070120
0.4419077489 0.2222224209 -0.1732886567 0.0000000000 1.0000000000 0.0000000000
0.5000000000 -0.0453124559 -0.1387165195 1.0000000000 0.0000000000 0.0000000000
-0.4419299065 0.0955602489 0.1388890156 0.0000000000 0.0000000000 1.0000000000
0.5000000000 -0.1230732215 0.0054103195 1.0000000000 0.0000000000 0.0000000000
-0.0807871986 0.1965634926 -0.1934440936 0.0800778927 0.0018294452 0.9967463367
0.5000000000 -0.1120460219 -0.2783059011 1.0000000000 0.0000000000 0.0000000000
0.2753110720 -0.0629223537 0.0986596544 -0.9931849257 -0.0007848641 0.1150710066
0.3440643230 0.2222224209 -0.3430510161 0.0000000000 1.0000000000 0.0000000000
-0.0796192304 -0.1493793091 -0.1935298139 0.0704526373 0.0000001170 0.9972772716
0.5000000000 -0.2042979011 0.1228792439 1.0000000000 0.0000000000 0.0000000000
0.5000000000 0.0086121918 -0.1424715803 1.0000000000 0.0000000000 0.0000000000
-0.4993377559 -0.1441920507 0.1135208884 -0.9987437063 -0.0003085965 -0.0482647484
0.5000000000 0.0611675400 -0.3470228579 1.0000000000 0.0000000000 0.0000000000
0.0265850678 -0.2222224209 -0.2765318667 0.0000000000 -1.0000000000 0.0000000000
0.4627928881 0.2222224209 -0.0776935491 0.0000000000 1.0000000000 0.0000000000
0.2294487945 -0.1379003217 -0.0339241913 -0.8545536578 0.0010048567 0.5190011300
0.3098028632 0.0680436800 0.3611114364 0.0000000000 0.0000000000 1.0000000000
0.4796106659 0.2222224209 -0.0387789226 0.0000000000 1.0000000000 0.0000000000
0.0252422126 0.0259173925 -0.1844424885 -0.2389057129 -0.0028703008 0.9707086142
-0.4472425297 -0.0521339472 0.1388890156 0.0000000000 0.0000000000 1.0000000000
0.0345388670 0.1659139947 -0.3611114364 0.0000000000 0.0000000000 -1.0000000000
0.2777775791 -0.1575371006 0.3340915432 -1.0000000000 0.0000000000 0.0000000000
0.3564854466 0.2156809166 0.3611114364 0.0000000000 0.3000000000 0.7000000000
0.2777775791 -0.0377118554 0.3456599797 -1.0000000000 0.0000000000 0.0000000000
0.2777775791 0.1304423424 0.3536704872 -0.9000000000 0.0000000000 0.1000000000
0.2729167651 0.0245219267 0.0822404600 -0.9841888895 -0.0008629860 0.1763494335
-0.3762171484 0.2222224209 -0.1638474193 0.0000000000 1.0000000000 0.0000000000
0.2101987776 0.2222224209 -0.3309706811 0.0000000000 1.0000000000 0.0000000000
0.1535019137 0.0484145068 -0.3611114364 0.0000000000 0.0000000000 -1.0000000000
0.2929444217 0.2222224209 0.3586955765 0.0000000000 0.9000000000 0.1000000000
0.5000000000 0.0044832532 -0.1328992558 1.0000000000 0.0000000000 0.0000000000
-0.0657124862 -0.2222224209 -0.2939333323 0.0000000000 -1.0000000000 0.0000000000
0.2777775791 0.0416424571 0.3532958698 -1.0000000000 0.0000000000 0.0000000000
0.2878454445 -0.2222224209 0.2311125229 0.0000000000 -1.0000000000 0.0000000000
-0.0670373973 0.0902822864 -0.1942242435 0.0370898115 0.0009331042 0.9991454570
-0.3535758803 0.2222224209 -0.1576259808 0.0000000000 1.0000000000 0.0000000000
0.2777775791 -0.0405634111 0.3261063948 -1.0000000000 0.0000000000 0.0000000000
0.0750762693 -0.0592608567 -0.1677647553 -0.3976971206 -0.0023554503 0.9171246323
-0.1534969052 -0.2222224209 -0.2949336901 0.0000000000 -1.0000000000 0.0000000000
-0.0669436950 0.1933572130 -0.3566000972 -0.1405246125 0.0000112665 -0.9900383159
0.4781091993 -0.2222224209 0.3167723746 0.0000000000 -1.0000000000 0.0000000000
0.0154679935 0.1268904235 -0.3611114364 0.0000000000 0.0000000000 -1.0000000000
0.3831993854 -0.2222224209 -0.0873954422 0.0000000000 -1.0000000000 0.0000000000
-0.3842613579 -0.1220310410 0.0836787912 0.9851854542 -0.0035482677 0.1706076826
0.0565937437 0.1565728942 -0.3611114364 0.0000000000 0.0000000000 -1.0000000000
0.3470398122 -0.2222224209 0.3175284355 0.0000000000 -1.0000000000 0.0000000000
0.3179772361 -0.2222224209 0.3352181978 0.0000000000 -1.0000000000 0.0000000000
0.0869034503 -0.1641096102 -0.3611114364 0.0000000000 0.0000000000 -1.0000000000
-0.4642768860 -0.0210475321 -0.0466660613 -0.9270621190 0.0006836099 -0.3747069295
0.5000000000 0.1753513819 -0.0993081712 1.0000000000 0.0000000000 0.0000000000
0.2605127958 0.1005733146 0.0330837565 -0.9494211706 0.0000687450 0.3135135138
0.3027298924 -0.2222224209 0.0863666255 0.0000000000 -1.0000000000 0.0000000000
-0.0834007142 0.0089914848 -0.1932378924 0.0808774200 -0.0009634110 0.9964007064
0.5000000000 0.1305476197 -0.3335579683 1.0000000000 0.0000000000 0.0000000000
-0.2566181699 -0.2222224209 -0.2047124660 0.0000000000 -1.0000000000 0.0000000000
-0.4930818233 -0.0729737375 0.0560558992 -0.9869990929 -0.0030657488 -0.1602194612
-0.3603271693 -0.1421035302 -0.2077344712 -0.7232185387 -0.0012433051 -0.6905376182
-0.4202598040 0.0390177314 0.1388890156 0.0000000000 0.0000000000 1.0000000000
0.4316887634 0.2222224209 0.0165192989 0.0000000000 1.0000000000 0.0000000000
0.2777045362 -0.0924899973 0.1349103584 -0.9998601191 -0.0002431437 0.0149540986
0.1782550008 -0.1931443764 -0.0986382477 -0.7081080072 0.0007025242 0.7059893493
0.1822532045 -0.2222224209 -0.2169623459 0.0000000000 -1.0000000000 0.0000000000
0.0468270962 0.0593676059 -0.1783189371 -0.3081142159 -0.0008349314 0.9512284074
-0.2280500503 -0.0449876535 -0.1463273881 0.5139215443 -0.0032249022 0.8574898866
-0.2379841435 -0.0312361067 -0.3008236153 -0.4763167041 -0.0001875660 -0.8791437957
-0.3688717921 0.2222224209 -0.0510067324 0.0000000000 1.0000000000 0.0000000000
0.4769578772 -0.2222224209 -0.1223266566 0.0000000000 -1.0000000000 0.0000000000
0.3832254502 -0.0736405303 0.3611114364 0.0000000000 0.0000000000 1.0000000000
-0.0012731486 -0.0513336980 -0.3610930503 -0.0042730166 0.0002111521 -0.9999693322
0.5000000000 0.1814020646 -0.2699812168 1.0000000000 0.0000000000 0.0000000000
0.2468231330 -0.1231417953 -0.0012994332 -0.9071539245 -0.0000988028 0.4205054339
0.2776536265 0.1764197193 0.1300373979 -0.9995331014 0.0003644807 0.0255511128
-0.2216105201 0.0903266151 -0.3093136841 -0.4404309987 0.0009401852 -0.8976480854
0.3487122812 -0.2222224209 0.1891807204 0.0000000000 -1.0000000000 0.0000000000
0.5000000000 0.0442890943 -0.0208336707 1.0000000000 0.0000000000 0.0000000000
0.0103664868 0.0117298407 -0.1878246991 -0.2078784427 -0.0028819104 0.9777736106
-0.3839192719 0.1483479178 0.0816895489 0.9849863625 0.0010531519 0.1717867964
-0.2898941698 0.0964852947 -0.0981401451 0.7076281007 -0.0023811472 0.7063790414
-0.3090532883 0.2222224209 -0.2027296972 0.0000000000 1.0000000000 0.0000000000
0.5000000000 0.0996727898 -0.2613230349 1.0000000000 0.0000000000 0.0000000000
0.5000000000 -0.0928913410 0.3075713305 1.0000000000 0.0000000000 0.0000000000
0.4277040616 -0.2222224209 -0.0613217109 0.0000000000 -1.0000000000 0.0000000000
-0.2592367171 0.0827509502 -0.2886536019 -0.5181265277 0.0007680868 -0.8551565338
0.4384266826 0.0234854962 -0.3611114364 0.0000000000 0.0000000000 -1.0000000000
0.1904918595 0.2222224209 -0.3568493012 0.0000000000 0.7000000000 -0.3000000000
0.0524499398 0.2222224209 -0.2769106698 0.0000000000 1.0000000000 0.0000000000
-0.1126445312 -0.2222224209 -0.2823415600 0.0000000000 -1.0000000000 0.0000000000
0.0058422222 -0.2214562654 -0.1886955134 -0.1203268203 -0.3984086367 0.5877577318
0.1291845305 -0.1160798640 -0.1385350081 -0.5534603379 0.0016933359 0.8326031326
0.5000000000 0.2148502310 -0.2881206470 0.8000000000 0.2000000000 0.0000000000
0.2622596130 -0.2222224209 -0.2298868540 0.0000000000 -1.0000000000 0.0000000000
0.3031340388 -0.2222224209 -0.0326152338 0.0000000000 -1.0000000000 0.0000000000
0.1970558827 0.2065107903 -0.0785779309 -0.7647102021 0.0013576285 0.6440826465
-0.4341798457 -0.0724407554 0.1388890156 0.0000000000 0.0000000000 1.0000000000
0.3227830526 -0.2222224209 0.1218537954 0.0000000000 -1.0000000000 0.0000000000
-0.3953795561 0.2222224209 -0.1248328874 0.0000000000 1.0000000000 0.0000000000
0.4893928130 -0.2222224209 -0.1948547325 0.2000000000 -0.8000000000 0.0000000000
0.2074083032 -0.1509490833 -0.0658624465 -0.7907514277 0.0013197761 0.6119457800
-0.0206469107 -0.1502930066 -0.3606718250 -0.0403622125 0.0007500775 -0.9991355935
0.5000000000 -0.0162098463 -0.1082314274 1.0000000000 0.0000000000 0.0000000000
0.4063503331 0.1695059153 -0.3611114364 0.0000000000 0.0000000000 -1.0000000000
-0.3891690831 0.0776376986 -0.1749920021 -0.7801933615 0.0002050150 -0.6253961889
