0.4956395613 -0.0082184046 0.0123449496
0.5000000000 -0.1259506357 -0.1460870311
-0.1684530700 -0.4148481150 -0.2101463372
-0.0771910592 -0.1119271830 0.3375506267
0.2243644985 0.1741785351 -0.1800975306
-0.0778581165 -0.0674247544 0.3375506267
0.0411221910 0.5000000000 -0.2555798602
-0.1498659667 -0.1273910683 -0.2823834995
0.5000000000 -0.0247407467 -0.3155112091
-0.2942860299 -0.1740068355 -0.1433437847
0.1586860279 -0.4491428633 -0.2362914344
0.1231990872 0.1242770489 0.3198361113
-0.0711028815 0.3077597637 -0.0025441472
-0.1466890318 -0.0954754360 0.3308748527
0.0152306556 -0.2557675542 -0.3368584039
-0.1319750599 0.4982749567 -0.2773211215
0.0988974652 -0.1444647272 0.1594760984
-0.2542279748 -0.0378116529 0.0084718594
-0.1064624009 -0.1390077254 0.2939732492
0.0770331749 -0.2415683998 -0.3196236942
0.4282422799 -0.1749314338 -0.1563904261
-0.0970924815 0.1456181979 0.2601766603
0.3115313691 0.1559667165 -0.0829005119
-0.2789376170 -0.1500490503 -0.2526469600
-0.0397867489 0.1788235859 0.0080235387
0.3389165818 0.0374266010 0.0085993933
-0.4743507406 0.1629556801 -0.0985047488
-0.0399372623 0.1703686126 0.0081794307
0.0919916438 -0.3771871616 -0.3113914357
0.0602359744 0.2428642318 -0.3267614919
-0.0011461473 0.1172677087 0.3375506267
-0.0910587993 0.1495613578 0.1678456678
0.1720480218 0.0320658407 0.1444783354
-0.4823272100 0.0121986679 0.0120802329
0.1273191648 0.1201695832 0.2582227132
0.1173853642 -0.5000000000 -0.2423925692
0.1274340488 0.2890754155 -0.0424532661
-0.1138467759 0.0532088626 0.3375506267
0.5000000000 0.0420415918 -0.0425955390
-0.4934630367 0.1363238678 -0.0526737475
0.1693090697 -0.0443807631 0.0199292637
-0.1731007500 -0.3740467650 -0.1364912729
0.0892068694 0.5000000000 -0.2844258029
-0.1704190857 -0.0399818321 0.0724974172
0.0724763058 -0.1593649340 0.1965978645
0.4230036862 0.1282412796 -0.0432450523
0.1136254655 0.3300821340 -0.0292933154
-0.0787710171 -0.3262351281 -0.3187738241
0.0136643419 0.5000000000 -0.2232529837
0.0115889171 0.2679563895 -0.3370384601
0.2610638899 -0.0933092983 -0.3105809510
0.1632019456 -0.0072060111 -0.3373371949
-0.1339676073 -0.3242806015 -0.0498346652
-0.5000000000 -0.0575754760 -0.1557008906
0.1750294920 0.1849860650 -0.1631572448
0.1605371039 0.2935819373 -0.0926132503
-0.3439069519 0.1695659559 -0.2057289586
0.0364396702 0.5000000000 -0.0160534861
-0.0203062280 -0.4144787540 0.0114217026
0.5000000000 -0.0813064425 -0.1498493718
0.0314195301 -0.2958513654 -0.3347012316
-0.0639831038 -0.4666845203 0.0005000349
0.4450398178 -0.1114995769 -0.2974283149
0.1991237074 0.0324114813 -0.3344723400
-0.0467521955 0.4025661230 -0.3311651342
0.0142951603 0.1343859890 0.3375506267
0.0782025103 0.3049690631 -0.0059213139
0.1734723856 -0.2382094063 -0.1855664899
-0.1674814322 -0.2643371717 -0.1114795322
-0.4877806948 -0.0949196277 -0.0153282546
-0.0295034677 0.0469135730 0.3375506267
-0.1330192863 0.1138365636 0.2103611517
-0.0665794711 0.0357231994 0.3375506267
-0.1539897682 -0.1703472231 -0.0793696065
0.1370850929 0.1088536229 0.2707732736
-0.1017219053 0.2174365186 -0.0199529429
-0.4771945851 0.1452648929 -0.0648613160
0.3156860264 0.1393980185 -0.2683765779
0.0463500269 -0.1537450703 -0.3312508919
-0.1677117593 0.0502231250 0.1306746238
0.1722241361 0.0311505953 0.1266755163
-0.1502476284 0.0895370129 0.3375506267
-0.1892721571 -0.1355014172 -0.0516032243
-0.0427534936 0.1201700182 -0.3321263782
0.0432767809 -0.3491413910 -0.3320533925
0.0888259562 -0.2430762140 -0.3132681076
-0.1664245434 0.3863866407 -0.1080307049
-0.1748051983 0.0090914315 0.1214284949
-0.0824840349 -0.1543500154 0.0277963089
0.1736211716 0.1492694156 -0.0709334584
-0.3110938192 0.1748372511 -0.1537068398
-0.1750408273 0.3245268757 -0.1592508948
0.0405425712 -0.3663037819 0.0078230993
0.0771932917 -0.1570453546 0.0712626080
0.1051816852 -0.1399395835 0.2037128809
0.1010573743 -0.4821533302 -0.0195604338
0.1488696575 -0.0920749612 -0.0076181714
-0.2248598324 -0.1355897586 -0.2732440017
-0.1268619815 -0.2942283662 -0.2830382323
0.1082830677 -0.2305470083 -0.0249601788
-0.1470120877 -0.0950201391 0.1696754084
0.1630551619 0.2890379263 -0.0986380739
-0.5000000000 -0.0250345199 -0.2072387110
0.1580529716 0.1270672524 -0.0421067633
-0.1356960953 -0.1106136807 0.1051850479
-0.1352918359 0.1520912595 -0.2735975476
-0.1734390735 -0.3152254493 -0.1387389390
-0.0439911115 -0.2543219557 0.0070253310
0.2396521562 -0.1110264949 -0.2977967107
0.1493914766 0.1473018812 -0.2569547753
0.1047034847 0.2425731028 -0.0221505753
0.2203567136 -0.1640101620 -0.2236089647
0.1416558129 -0.1229430201 -0.2870026209
0.0073959415 0.1748924364 0.1094490367
0.0990243476 0.1443019593 0.0777589834
-0.1623354674 -0.2326214677 -0.0969125382
-0.0814653798 -0.1549143090 0.0621903139
0.2717146373 -0.1703435662 -0.2026250738
-0.5000000000 0.1075840473 -0.1868676104
0.0976992573 -0.0318231105 -0.3346200659
-0.1171603645 0.2218731391 -0.2925030231
-0.1738649216 -0.1328598788 -0.2764476093
0.5000000000 0.0935903626 -0.0743944438
0.0517395880 0.0102049331 0.3375506267
-0.1498932731 -0.2804257225 -0.2528298601
-0.0321208982 -0.3753867380 0.0096569713
-0.1651178300 0.1656882365 -0.2203004859
0.4528020013 0.0734249326 -0.3214039843
-0.0200546621 0.3869192649 -0.3363261576
0.3550631386 -0.1361950328 -0.0524754356
-0.0895005036 0.4489064222 -0.0119682387
-0.1214653831 -0.4533186842 -0.2885048290
-0.1280018473 -0.0017354210 -0.3375008423
0.5000000000 -0.1119407983 -0.0788418159
-0.5000000000 0.0097163494 -0.3133346750
0.2414440137 0.0501761059 0.0052059956
0.0382805527 -0.2397534085 -0.3332416341
-0.4114478617 -0.1212978199 -0.0361869240
-0.1955910978 0.1364205444 -0.2720420785
0.0281334873 -0.5000000000 -0.0665940747
0.1626089829 -0.5000000000 -0.2203932242
0.0354531958 -0.2621106813 0.0090098359
-0.0204329249 -0.1738532596 0.0606710586
0.5000000000 -0.0967617506 -0.2209308224
0.0313724708 0.5000000000 -0.3021470426
-0.0494120233 -0.5000000000 -0.0960835760
0.1727416401 -0.5000000000 -0.1897572498
0.0892053242 -0.1505871766 0.1694054498
0.1308296142 -0.1162430169 0.3010675743
-0.2240331408 0.0657850151 -0.3247223688
-0.1983495816 -0.1750848733 -0.1636318407
0.1064178948 -0.1389783425 0.2874107701
0.1396520676 -0.3775089989 -0.2680735696
-0.0131315247 0.4314569184 0.0120808252
0.1828197152 0.0391186109 0.0081739443
0.1638780163 0.0615085583 0.0130679549
0.4231264165 0.1122593747 -0.0282309246
-0.1313796839 0.1156736109 0.1528740275
0.4225687923 -0.0861635647 -0.3147843175
-0.1373397983 -0.1084249643 0.0261332818
0.4520434237 -0.0891732159 -0.0117625197
-0.0032515500 0.0689611697 0.3375506267
-0.2723445594 -0.0418451470 0.0075450264
-0.5000000000 0.1139692029 -0.2513814783
-0.1313319052 -0.1158002647 0.2805700469
-0.0824759488 -0.1543555741 0.1635162010
0.0278313512 -0.3086435808 -0.3352950369
0.0514667095 -0.5000000000 -0.0550010627
-0.1875348636 -0.1385120913 -0.0554062213
0.0984499460 -0.1446386765 0.1873549654
-0.1619381331 -0.0004865259 0.3375506267
-0.2714485538 -0.1495157650 -0.0715221234
-0.5000000000 0.0373831928 -0.0227191208
0.0567292577 -0.5000000000 -0.1768998342
0.0857707401 -0.1525554686 0.2626128091
-0.5000000000 -0.0299364624 -0.0223205949
0.1135465336 0.3423376784 -0.2957097011
-0.0606891937 -0.5000000000 -0.2957377469
-0.1738262639 0.0205915611 0.0394942764
-0.0071177287 -0.5000000000 -0.2208010028
0.0747241825 -0.2092981128 -0.0041361715
0.1653571852 0.5000000000 -0.1429123939
0.1145436936 -0.5000000000 -0.2460928610
-0.1469192799 -0.0952250599 0.1617272766
-0.0207716584 -0.1737577792 0.1634028687
-0.0106603956 -0.3522724185 -0.3371979061
-0.3147790061 -0.1536728948 -0.2463241144
-0.2273355016 -0.1178736795 -0.2919282585
-0.0425887912 -0.2685833732 -0.3322343022
-0.1140875764 0.5000000000 -0.2363459168
-0.0760385935 0.0919165038 0.3375506267
0.0887171231 -0.1508075435 0.0744300297
0.1051064920 0.2483676601 -0.0224717909
0.1750169946 -0.0003545070 0.2500118225
0.2122742536 0.0941406355 -0.3099979294
0.1467559102 0.0954183056 -0.0081969155
-0.1866433723 -0.0566342760 -0.3280951598
-0.5000000000 -0.1280571010 -0.1045232264
-0.2906109347 0.1285654127 -0.0435964437
0.0655769090 -0.2043098207 -0.3247285160
-0.1548953554 -0.0815096067 0.1375938500
-0.1198602819 -0.3933625353 -0.2899667863
0.1944881588 0.1744217915 -0.1477896776
0.0539265309 0.2492099949 -0.3289895141
-0.3308619141 0.1718642953 -0.1292373249
-0.1199044450 0.1275634383 0.0037320085
0.0244557801 -0.5000000000 -0.0057197060
-0.0268748601 0.4996259967 0.0104176956
0.3515768422 -0.1435910724 -0.2625535515
-0.1220573094 0.1254492138 -0.0149826022
-0.0917850951 -0.2008440393 -0.0134297610
0.1584360361 0.3189300727 -0.2370049287
-0.4667707605 -0.1666046511 -0.2160150631
0.2381814092 -0.1382667618 -0.2697334977
0.0991147295 0.1443443425 0.2641719134
0.1696639230 -0.4165427749 -0.2056633874
-0.0650030272 -0.5000000000 -0.0359321193
0.4484939297 -0.0695611574 -0.3231086202
0.0617769047 0.1637985765 0.1986213668
-0.4568795419 0.0103818084 -0.3371925827
-0.5000000000 -0.0585239004 -0.3268865247
-0.0882138617 0.3399154977 -0.0112510379
-0.5000000000 0.1425843866 -0.1472159108
-0.5000000000 -0.1480438152 -0.1090073961
0.1725812927 -0.0572168086 0.0030219465
-0.1682178050 0.2264130734 -0.1141632650
-0.0796297825 0.3071005207 -0.0066037879
-0.1737643999 -0.3649464571 -0.1830089544
0.1750791221 0.0003698277 0.2804887945
0.1773007012 0.1681268397 -0.2111455860
0.1400846681 0.3462482168 -0.2673368497
0.2074937674 0.0651716764 -0.3249274872
-0.0336265735 0.4336974461 0.0093257688
0.4781624027 -0.0415919169 -0.3325025582
-0.1367038488 0.2944986940 -0.0531024202
-0.1551645182 0.3545918601 -0.2434378491
-0.3179150020 -0.0857577577 -0.0098523626
-0.4355086642 0.0677922947 -0.0010476196
0.2661804602 0.1611329677 -0.0939967762
-0.1691891232 0.4159970486 -0.2074792564
0.0023502087 -0.5000000000 -0.0955080949
0.3436910023 0.1018149424 -0.0200577230
-0.2746377525 0.1286773859 -0.2810570732
-0.1494501442 0.0910696309 -0.0082246955
0.0278635196 0.1728027761 0.3341059723
0.1991933677 0.1732462926 -0.1376744784
-0.0818416585 0.3660722891 -0.3171732609
-0.3441725255 -0.1389027058 -0.2690005870
-0.1413188838 -0.4792349134 -0.2656247161
0.3196782830 0.1629942816 -0.0987841278
0.4672074659 -0.0367970124 0.0087076435
0.1297021630 -0.1625124353 -0.2798846680
-0.1245508066 0.1229852070 0.0253518093
0.0841788841 0.5000000000 -0.3100568656
0.5000000000 -0.1542065733 -0.1171148368
0.0141910816 -0.4937205988 -0.3368988363
0.1703138418 -0.0405315118 0.2238523250
-0.5000000000 0.0950691550 -0.2032704938
0.1729798440 0.0271513910 0.2311631587
0.1168208935 -0.3383562439 -0.0320996839
-0.0035389258 0.2238901109 0.0126062472
-0.2638510305 0.0277581667 -0.3353253230
0.0113786749 0.2514886797 -0.3371007584
-0.5000000000 -0.0901373696 -0.3074815104
-0.1693929214 -0.0076938038 -0.3373374250
0.1006780731 -0.0103143042 0.3375506267
-0.1599615008 0.2808214723 -0.2334141495
-0.3368755318 0.0421121598 -0.3323255221
-0.1613879355 -0.0675932361 0.1658300081
-0.4780100831 -0.1436332510 -0.0623243969
-0.0153598835 -0.1743481199 0.3012576605
-0.5000000000 -0.0676035061 -0.0757189474
0.1341471101 -0.2662083824 -0.0500792782
0.2091063679 -0.0157214846 0.0118837067
0.4379975201 0.1534091266 -0.2468323621
0.3210330732 0.0230257367 0.0110220496
0.1336846600 0.1823780544 -0.2755057194
0.0635027898 0.1799110733 -0.3255490440
-0.2876373220 0.1548801601 -0.0809241550
0.3683830974 0.0735938209 -0.0036170427
0.1586489565 -0.0738704785 0.0975837176
0.1155041878 -0.0048953056 -0.3374420468
0.1120023806 0.3027073520 -0.0278948356
0.0404139594 0.4433953538 0.0078302323
-0.1522572355 -0.4068092529 -0.2487591193
-0.0467173106 -0.0956084355 0.3375506267
0.5000000000 0.0482835628 -0.3096635205
0.0179373576 0.1816532305 0.0116608732
-0.5000000000 0.0119692791 -0.1878815177
0.0289906537 -0.0580211353 -0.3350653751
-0.1750540834 -0.4568653646 -0.1604809088
0.0759801742 0.5000000000 -0.2308632359
0.1708463884 -0.2472524177 -0.2006787435
-0.4916523859 0.1739752715 -0.1817411746
-0.5000000000 -0.0527888726 -0.0438512460
0.1565023063 0.0784438426 0.1452227766
-0.1542320586 -0.2707409735 -0.0795755276
-0.0809869550 -0.1552151446 0.1768775477
0.1593051905 0.3355379403 -0.2350608931
0.4952083604 -0.0843946212 -0.3157954755
0.1749951604 0.2025137429 -0.1566396908
0.1641098280 -0.0609098571 0.0987503660
-0.1746049025 0.2295959224 -0.1746652176
-0.1551527404 0.2408944482 -0.0814315680
0.1714290056 0.4441704550 -0.1978093453
-0.1652800382 -0.3830221111 -0.1046829654
-0.2963395674 0.0807529956 -0.0070936481
0.0538985298 0.1993050266 -0.3289253249
0.0765684974 -0.5000000000 -0.0146222906
-0.0273428637 -0.3643971769 0.0104831289
0.1092147820 -0.2007537273 -0.0256654290
0.4150882367 -0.0415822211 0.0076270998
0.0029355387 0.4037642111 0.0125337567
-0.1510743543 0.2261864437 -0.0740209346
-0.1608872621 0.0690774680 0.1118553435
0.4797867039 -0.1289230809 -0.2807452839
-0.5000000000 -0.0141128394 -0.0621191873
0.2685052705 -0.1156410881 -0.0310261573
0.3436038740 -0.0181247130 0.0116819498
-0.0841010761 0.4269872999 -0.0089758766
-0.5000000000 -0.1512697618 -0.0854041584
-0.0474655175 -0.2493445136 -0.3309375463
0.3602124798 -0.1322806037 -0.2770381838
-0.0993865571 0.0230642727 -0.3359868740
-0.0793793255 0.5000000000 -0.1201962956
0.4276427022 -0.1709928497 -0.1999053277
0.0907703955 0.1496903209 0.1389815990
0.1645732750 -0.0597043825 0.0505670986
0.1743599630 0.0154211497 0.1142418992
-0.0971692081 0.1084215523 -0.3080895013
0.4212953545 -0.1732239321 -0.1373055067
-0.1734346024 -0.3376472578 -0.1384328004
-0.4681438265 0.0462099476 -0.3312338788
0.1747884489 -0.2325842938 -0.1541660706
-0.0595537861 -0.5000000000 -0.1228219255
0.1064094429 0.5000000000 -0.0376323297
-0.5000000000 -0.0811237006 -0.2996570404
0.1447187784 -0.4850153246 -0.0640842821
0.1550110786 -0.1204292199 -0.2894222047
0.1701859531 0.4686507888 -0.2028955155
-0.1731313588 0.1840511448 -0.1884479768
0.2229987648 -0.0757132378 -0.3203015612
0.3890902073 -0.1080863744 -0.3001986885
-0.1069058405 -0.1704224721 -0.3009461163
-0.0597023437 0.1189801439 0.3375506267
-0.0547668510 -0.1642155267 0.3375506267
-0.1324434053 0.5000000000 -0.2337095193
0.1406704120 0.3100453308 -0.0582384053
-0.0911951751 0.5000000000 -0.2590850657
-0.1738165459 0.1302757072 -0.0455913746
0.0212267584 0.4866200505 -0.3362269787
-0.1712501803 0.3676565754 -0.1260836898
-0.3435758410 -0.1613751876 -0.2302997785
-0.1777086040 0.0996673905 -0.0184826455
0.4651492048 -0.1478700978 -0.2560551212
-0.5000000000 0.0225081765 -0.3162059399
0.1748426820 -0.4450205932 -0.1553479736
-0.0085948380 0.1748549951 0.2340620676
0.0489823266 -0.3318110851 -0.3305384877
0.0547482459 0.0848720208 0.3375506267
-0.2985539914 0.1709302526 -0.2000242677
0.2950024910 -0.0721074979 -0.3218790780
0.1168497192 -0.4373847487 -0.2927647997
0.5000000000 -0.1163012648 -0.0712964100
0.1331321105 0.4388074568 -0.2761072293
0.1625931360 0.0648132097 0.0391544097
-0.2115550309 0.1407128044 -0.0582801261
0.4910972787 0.1530254128 -0.2474116901
-0.1089528022 0.4041768192 -0.2994398863
-0.4268296477 -0.1295227013 -0.2802432235
-0.0701523447 -0.0665543320 0.3375506267
0.0249255529 0.1732809657 0.0302013948
0.3690689936 -0.0522753526 -0.3294972744
0.1099848323 -0.1559441488 -0.0262604732
0.1202964106 -0.2231479671 -0.0352353031
0.2033060955 -0.0125172822 0.0121561692
0.1750799996 -0.2878431637 -0.1600678052
0.5000000000 -0.0205938495 -0.3184031548
0.3557236197 -0.1737345124 -0.1411920398
0.1087790892 0.2786087130 -0.0252761488
-0.4954539146 -0.1750067687 -0.1620903209
-0.1154901002 -0.1482851312 -0.0309064470
0.0921733578 0.2359456192 -0.3112760512
0.0062727249 -0.0950661747 0.3375506267
-0.1292358321 -0.1328372135 -0.2804388608
-0.4087163485 0.1530586922 -0.2473280256
0.3649510896 -0.1730805545 -0.1363734349
0.0031074533 -0.1750141495 0.1395362434
0.4080485550 -0.1020635976 -0.0201860259
0.1915684337 0.1631217746 -0.2258323131
-0.0419612509 0.1699678940 0.1932032691
0.1617160668 -0.0670912605 0.0080333352
-0.1718293872 -0.0334178653 0.0150863477
-0.1080891456 0.1376516534 0.2680060696
0.3120481093 -0.1352284957 -0.0513433619
0.1529699857 -0.4652460971 -0.0774335801
-0.1350964375 -0.0316636098 0.3375506267
-0.1272231132 0.1202595786 0.0329194431
-0.0303649203 0.5000000000 -0.0692582043
0.5000000000 -0.0592480061 -0.2545452183
0.0459383890 0.1855510584 -0.3313544454
-0.0296279602 0.0659065801 0.3375506267
0.2442727759 0.0690925122 -0.3232297634
0.0595695335 0.0477550231 0.3375506267
-0.0682027025 -0.1612298346 0.2634512194
-0.1100377882 0.2621373488 -0.0262804998
-0.1626869867 -0.4704024554 -0.0979137330
0.0446622731 -0.5000000000 -0.1141859315
0.5000000000 -0.1126476599 -0.0716285076
-0.4293627291 0.1028102154 -0.0208374885
-0.1650927529 0.2914577664 -0.1042845281
-0.1551077857 -0.5000000000 -0.2383887157
0.1216959095 0.1258117865 0.2201966553
0.1747074211 0.0105515093 0.1727256253
-0.3356666157 -0.0270106887 -0.3354468137
0.1332107309 -0.2102026705 -0.0488998599
-0.0047845915 -0.3453340091 -0.3373877396
0.1446318756 -0.5000000000 -0.2344780947
-0.0210624085 -0.2643783103 -0.3362345907
0.0146691075 0.1516423998 -0.3368633596
-0.5000000000 -0.0820173849 -0.3136716726
-0.3261014486 0.0036906745 -0.3374459118
0.1421712402 -0.1020041374 0.0604967557
0.1749634950 0.0058699025 0.1742832101
0.1715606582 -0.1635008670 -0.2249209978
0.2393886269 -0.0334739454 -0.3342351533
0.1726766854 -0.3101836973 -0.1338369797
-0.1424433618 -0.4005681253 -0.0606718605
0.1325882390 -0.1143483027 0.0295805321
-0.5000000000 0.0829224717 -0.2932931033
-0.4578034406 -0.0680433296 -0.3237422669
0.1670078708 0.0523752994 0.2469088433
0.3173951165 -0.0607383969 -0.3265937219
-0.0454466693 -0.0268307350 0.3375506267
0.1661487782 0.0549847379 0.2176768865
0.5000000000 -0.1160435681 -0.0781678269
0.3048193076 0.1156779647 -0.0310694014
0.2519252754 -0.1560987320 -0.2416085459
-0.1442360484 -0.0992758266 0.2781971959
-0.0107933178 0.4494731177 0.0122914718
-0.0107826117 0.5000000000 -0.0408463580
0.0003627556 -0.3605215236 0.0126007175
0.3784271454 0.1725967760 -0.1337212819
-0.5000000000 0.0814726825 -0.1212453523
0.3501507607 0.1369820310 -0.2713706854
0.1566122989 -0.2887776587 -0.2406152990
-0.1620687372 0.1078537512 -0.0246731009
-0.0948570740 -0.2255041800 -0.0153092270
-0.0990818644 0.3192589948 -0.0181672007
-0.0575634492 -0.3480172305 -0.3277296068
-0.1672031032 -0.1899319349 -0.1106194977
0.0189920611 0.2620659469 -0.3364961082
0.1672422458 0.1627145255 -0.2270775233
-0.1104374934 0.1357706485 0.3055176536
-0.1120099928 0.1568563146 -0.0278617645
0.3982158219 -0.1738412544 -0.1831989233
0.2539961460 -0.0793409766 -0.3184562122
-0.0660209073 -0.1615085947 -0.3245797685
0.1372661835 0.2452147951 -0.2710122494
0.1745896836 0.0125282046 0.2100470818
0.5000000000 -0.0763634063 -0.1998622955
0.0982071874 -0.2462732826 -0.3073164957
-0.3144899561 -0.0177807768 -0.3365357202
0.0565217374 -0.1656063993 0.1381911071
0.0840559615 0.1534987437 0.2678155581
-0.1710873925 -0.3121369226 -0.1254152685
0.0302351881 0.1724424609 0.0735837422
-0.2262305522 -0.0521577220 -0.3295795141
0.1745968146 0.0123995407 0.2416404233
0.0230715961 0.5000000000 -0.3186529886
0.2790931508 0.1725243637 -0.1326151266
0.1750272317 0.2188863312 -0.1622706637
0.1216656970 0.1258703317 0.0454998877
-0.3751644780 0.1716567189 -0.1279831502
-0.1550434860 0.0813655201 0.2371060409
0.5000000000 0.0338655415 -0.2808198608
0.1075179595 -0.1380522649 0.0367714969
0.2863366753 -0.1660628145 -0.1071285559
0.4249637334 -0.1170686384 -0.2925583948
-0.1280235097 -0.2717452970 -0.2818216728
0.0281700391 -0.5000000000 -0.0021121173
0.1844430684 -0.1667514441 -0.1092716101
-0.1681474875 -0.2349092640 -0.1139503666
-0.5000000000 -0.0830223617 -0.3130004606
0.5000000000 -0.0228694501 -0.0678354364
-0.4878769801 -0.1520616843 -0.0757422281
0.1726480186 -0.0291227538 0.1295868277
-0.1291870645 -0.3703606271 -0.2806385268
0.4453341191 -0.1644249326 -0.2223829602
0.5000000000 0.1134000504 -0.1055079606
-0.2663555151 0.1672717860 -0.1108494536
-0.1055358181 -0.2966046019 -0.0227488192
0.1732416552 0.0252802035 0.2530743440
0.3653899639 -0.1669221006 -0.2151872259
0.1458760774 -0.2621470751 -0.0656197117
0.0764964014 0.4138767340 -0.0049423707
0.1545764956 0.4053052966 -0.0802982987
0.4136986555 0.1278596853 -0.2819052380
0.4555461528 0.0324674879 -0.3344939565
-0.5000000000 -0.0703676765 -0.1025629262
0.1236584847 -0.1239451141 0.1407773042
0.2644187422 -0.1593953795 -0.2348479427
0.0085373970 0.4492741598 0.0123852706
0.1640732167 -0.0611177656 0.2031169099
-0.3988140227 0.0872863667 -0.0107480528
-0.3479206466 0.1629692288 -0.0986718847
-0.5000000000 -0.0631853544 -0.1204127790
0.0828695762 -0.0219485777 0.3375506267
-0.0295820349 -0.1724945837 0.2122931764
0.0396352414 -0.3320502645 -0.3329569636
-0.1740324765 -0.2198381678 -0.1431467678
-0.1895999537 -0.1498509567 -0.2529253175
-0.0490973962 -0.5000000000 -0.2548428602
-0.1233683932 -0.5000000000 -0.2751440205
0.1357449501 0.2022338225 -0.2730345956
-0.4708441923 -0.1726350507 -0.1914400313
-0.1740033482 -0.0188734229 0.3007405738
-0.3940020112 -0.0789545064 -0.0062606481
-0.1740375550 0.2206171901 -0.1438436981
-0.1749008762 0.0065347560 0.1579873814
0.1401484994 -0.2224848298 -0.2674121722
-0.1736944264 -0.0211776409 0.0398704828
0.0833167162 -0.0367795660 0.3375506267
0.4252263896 0.1263277654 -0.2836470054
-0.0799343062 -0.1557413211 0.1093070626
0.3369459261 0.1675588976 -0.2128301792
-0.3010810237 0.0414109588 -0.3325580377
-0.1085129027 0.2668373789 -0.0251133012
0.0682308908 0.0992766018 0.3375506267
0.0449540499 0.5000000000 -0.0312273206
-0.1642859608 0.2929423714 -0.2224793550
0.1373571497 -0.3126599852 -0.2709337432
0.1305255714 -0.1781210695 -0.0458258304
-0.1027048027 0.5000000000 -0.1334506701
-0.1726094915 0.2304590683 -0.1332442242
-0.1666560654 -0.3236925492 -0.1091949888
0.2527733783 0.1203513483 -0.2895929525
0.1698473763 0.3970932594 -0.1198897929
0.0085322107 0.3466535621 -0.3371701999
0.3844542986 -0.1643547849 -0.1021570470
-0.1139436577 0.4034979798 -0.0295327990
-0.1996495465 -0.0447824976 -0.3317110624
0.1261398737 -0.3699184606 -0.2838408853
0.0906945215 -0.5000000000 -0.2634649464
-0.1622116944 0.0658917431 0.2818382476
0.3700458559 0.1744706637 -0.1488300970
-0.1666531049 0.4589673972 -0.2159929580
0.1337471594 0.5000000000 -0.0866003550
-0.0681066163 0.1613053945 0.2974547094
0.1074199601 0.3591021684 -0.0242673836
0.1857781259 -0.0424256047 0.0073283864
0.2996772375 -0.1729145123 -0.1894316962
0.0710208095 0.5000000000 -0.2594123970
0.2814722919 0.0690761167 -0.0016219592
-0.1627613075 0.4786882376 -0.0979721939
0.0567614338 0.2335566208 -0.3280389986
-0.1626658900 0.0644695612 0.1845187477
-0.1637747496 0.2440723371 -0.2241774141
0.2560543910 0.1553979641 -0.0820900238
-0.1738409350 -0.3875239384 -0.1829780651
0.1573407025 0.2519617083 -0.0856656116
-0.5000000000 -0.1022195397 -0.1537449543
0.0046842949 -0.5000000000 -0.1680698407
0.1611835620 0.0817502506 -0.3172752338
0.4959044162 -0.0893111018 -0.3129279444
-0.1560815773 0.3032601045 -0.0832027933
0.3493686935 0.1249876641 -0.0399549313
-0.2588467915 -0.1511932790 -0.0742120936
0.1159577643 -0.4878761570 -0.2934910720
0.5000000000 -0.1043627739 -0.0295377227
0.0200384392 0.5000000000 -0.2253239939
0.0027803103 -0.1750286003 0.2355852948
-0.1660875690 0.0552948703 0.1873281736
0.0932697005 -0.5000000000 -0.0248537601
0.1606687384 0.0692781065 0.0289770337
0.1266748277 0.1207732223 0.0029568341
-0.0434909566 -0.5000000000 -0.0375997053
-0.0554379926 0.1660191879 0.2524648244
0.0613807392 -0.1639378384 0.2209054085
-0.0891242589 0.3117797963 -0.3130959352
-0.0067149302 -0.5000000000 -0.2376551800
-0.3226292167 -0.0454624263 0.0066046740
-0.2997952036 0.0585445458 0.0024956911
-0.0311497747 0.1722357527 0.0430254935
0.1971686198 0.1467398859 -0.2579640852
-0.0491880104 0.1679798268 0.1283716642
0.1070343397 0.3484061896 -0.0239270536
-0.0872062683 -0.1157771204 -0.3142594059
0.0407645731 0.3247901431 -0.3326929108
0.1560798104 0.0791998884 0.3172201675
0.0622259001 0.3232292980 0.0011725597
-0.0260460830 0.3149469946 0.0106484395
-0.1409976969 -0.2835633178 -0.0587548606
-0.1721410400 -0.3312128672 -0.1940723224
-0.1321258730 0.2112535296 -0.2771563918
-0.0120727870 -0.1941327427 0.0121420011
0.4427833316 -0.0549982405 0.0037112241
0.1604467681 0.3242863440 -0.2324882062
0.1698703361 -0.0422399988 0.2701560257
-0.1362078524 0.4683056747 -0.0524680489
-0.2231131931 0.1750257430 -0.1676895767
-0.1475060799 0.0585000625 -0.3273553345
-0.5000000000 -0.0920458758 -0.2156929825
-0.3215426273 -0.0827655119 -0.3166942604
0.4691417684 -0.1174374160 -0.2922671939
-0.4402421610 -0.1364716795 -0.0527674125
-0.1367404536 0.4170693877 -0.2716966355
0.1748038654 0.0087153011 0.1452267625
0.1839051851 -0.1563561273 -0.2411320232
0.4481337681 0.1036386601 -0.3035023108
0.0068163327 0.1923620905 0.0124911143
0.3550176398 0.1749298924 -0.1678234267
-0.1955771039 0.1654796786 -0.2193661647
0.2646229924 -0.1733930149 -0.1864925789
0.2929776476 -0.0882597173 -0.3136638533
0.4705035042 -0.0375581483 0.0085639535
-0.0500208725 -0.3922241434 -0.3302289651
0.0624226446 -0.2237869322 0.0010587421
-0.0679209904 -0.5000000000 -0.1335762814
-0.1504782548 -0.1515654453 -0.2518646158
-0.5000000000 -0.0530537403 -0.0774831357
0.0342262238 0.2210257820 0.0091868117
-0.0132338083 0.0076733734 -0.3373133022
0.5000000000 0.0404707150 -0.0212103402
0.4499152387 0.1648338630 -0.1037768402
0.5000000000 -0.1048672834 -0.1793261036
0.4804244408 -0.0469955826 -0.3310853533
0.0670369977 0.0695920752 -0.3241647185
0.1563319383 0.2955927347 -0.0838637060
-0.5000000000 -0.0427921972 -0.1347837093
0.1135157548 -0.1332834045 0.2681266754
-0.1990617960 -0.1275832585 -0.2823664316
-0.1747269771 0.3550241110 -0.1527081040
0.2785065713 -0.1561858989 -0.0834688556
0.0220766253 0.1344778491 -0.3360519507
-0.1615077026 0.2884302000 -0.2300243677
-0.1735063536 0.0233954856 0.2109445044
-0.0675415858 -0.3501154782 -0.3239530025
-0.1725697472 0.3984700155 -0.1332614216
-0.1472860147 -0.5000000000 -0.1091674238
-0.4506769642 0.1676147526 -0.2129529121
0.1388640828 0.1064611610 0.0542071355
0.1730542066 0.0262999345 0.0574434719
-0.1712423792 0.2563601321 -0.1261161496
0.3862530988 -0.1549797351 -0.0811102211
-0.0881397733 -0.2355734122 -0.3136572562
-0.0366458740 -0.5000000000 -0.3222161348
0.1203843904 -0.4183058078 -0.2895395673
0.1868392606 0.1712047984 -0.1988893782
-0.1154019512 -0.5000000000 -0.1560262186
0.1209020010 0.1265883099 0.1342447354
-0.4100242835 0.1424776376 -0.0608597354
-0.1723768193 0.4911772478 -0.1320677610
-0.1063871691 -0.1997430281 -0.3014746204
-0.1043154473 0.5000000000 -0.3006527625
0.4962565045 -0.1536709908 -0.2461278138
0.0834895909 0.1464991443 -0.3162300703
0.4128008377 0.1633513879 -0.2252725498
0.0922997457 -0.5000000000 -0.0383306859
-0.1025436688 0.1418022020 0.0553902121
0.1253294935 0.4582259674 -0.2847209201
-0.0351952484 -0.0442641222 0.3375506267
-0.3250562109 0.1517309286 -0.2497561341
-0.3311973050 -0.0059508487 0.0124802123
0.1519078802 -0.0868568321 0.1031123811
0.0252974572 0.5000000000 -0.3089927592
0.1677152603 -0.3115658470 -0.2125509552
-0.1706516783 0.3486612293 -0.2014313682
0.5000000000 -0.1486069129 -0.1150755139
-0.0748662982 0.0527037752 0.3375506267
0.3270077477 -0.1749708779 -0.1663447721
0.1477322479 0.3570982447 -0.0684816937
0.1561861476 0.0790385574 0.0443077280
0.2547710181 -0.1495347754 -0.2533239717
0.1100526879 0.5000000000 -0.0974724162
0.0477298233 0.5000000000 -0.2867873334
-0.0734763989 -0.5000000000 -0.0886200236
-0.5000000000 0.0620465563 -0.2893463442
-0.0607813843 0.1092324997 0.3375506267
-0.3921409974 0.0198417980 -0.3363947791
0.5000000000 -0.1197385780 -0.1502226363
-0.3254118015 -0.0785622620 -0.0060324495
0.1576412430 -0.1955468623 -0.2385078458
0.3401332366 0.0925533078 -0.0138980442
-0.1542234410 0.1574751274 -0.2452345883
-0.1491723615 -0.3536408875 -0.0708432840
0.0396541255 0.2910258545 0.0080808751
-0.1246096488 -0.4366878026 -0.0394751370
-0.2732919948 0.0713401815 -0.0025627898
-0.1708149308 -0.4578969501 -0.1246012894
0.1145929828 -0.3484845570 -0.2947835667
-0.0985248993 0.4553406975 -0.3070783195
0.0995439257 0.2807713635 -0.3063508906
0.1722474901 -0.4458819680 -0.1936507795
0.1584628334 -0.0743471927 0.2705284011
-0.1221892051 -0.5000000000 -0.2555598164
0.5000000000 -0.1048632252 -0.2881688189
-0.0632497720 -0.4624608089 0.0007597948
-0.4633578265 0.1734155252 -0.1862141352
-0.0289690878 0.5000000000 -0.0109656311
-0.1719843961 -0.1788740135 -0.1950731699
-0.3183027412 -0.0781657803 -0.0058537063
-0.2589654769 -0.1405359557 -0.0581931836
0.1433155040 -0.1005694845 0.0392381150
-0.3492148659 0.1256989074 -0.2843096248
-0.2010819582 -0.1653870014 -0.2197889569
-0.0217532093 -0.1736595509 0.1195972884
-0.4086771928 0.0849574977 -0.0095295190
0.3996565388 0.0889232457 -0.0116680352
-0.0585383629 -0.1650141166 0.0165532500
-0.0867328442 -0.3065879282 -0.0103478924
-0.1021129519 0.4169598900 -0.0202123452
0.0041633371 0.0400263861 0.3375506267
-0.0848560045 0.1530794384 0.1155258620
-0.1531214012 -0.4689896948 -0.0776979139
0.1627876880 0.1598165008 -0.2337018913
0.0814611019 -0.1485670022 0.3375506267
-0.3299371477 -0.0115540893 -0.3371283796
0.2947197366 -0.0103485078 -0.3372200422
0.3438345482 -0.1647837830 -0.2213228761
-0.0541840786 0.0300918535 -0.3349137730
-0.0817369111 0.2491175936 -0.0076301902
-0.3398547913 -0.0900633538 -0.3125201915
0.1719187014 -0.5000000000 -0.1762493998
0.1541616371 0.0834988672 -0.3163387347
0.1661469556 0.3973381284 -0.1072319254
-0.0990919794 0.3850915783 -0.0181683172
-0.0737767932 0.1587802464 0.0807049142
0.1750369023 -0.0030694785 0.2597080282
0.4025667956 -0.1684455152 -0.1146728179
-0.2355085623 -0.0313443890 -0.3346538024
0.0304856984 -0.1723128454 0.0323667070
0.1730419957 0.3574767722 -0.1360329024
-0.4211337493 0.0424225599 0.0073287869
0.0467874964 0.1686204485 0.1344210103
-0.1565282542 0.1721472391 -0.0839938495
-0.1738463288 0.0195423133 0.3199365102
0.0705307600 -0.2213135883 -0.3226142275
-0.4844517398 0.1729506171 -0.1892441427
0.1619679932 -0.0662403580 0.1995788432
-0.0601648175 -0.2925883517 0.0019323548
-0.5000000000 -0.0566348087 -0.1451816098
0.1549827775 0.0413912651 -0.3325117354
-0.4940505977 0.0377300011 -0.3333491576
-0.1049759480 -0.3208637944 -0.3025907685
-0.0499173802 0.5000000000 -0.0608273107
-0.1235003791 -0.1567089643 -0.0383267828
-0.4265992244 -0.0826254221 -0.0081434637
-0.1332612004 -0.1134543480 0.1561539041
-0.5000000000 -0.0066693877 -0.3367115494
0.1107633691 -0.0015160333 -0.3375031359
-0.3310970773 0.0984363112 -0.0177660294
-0.3457910526 -0.0738917706 -0.0038280498
0.1639244635 0.0614190616 0.1596414669
-0.1853978173 -0.1723393056 -0.1315730674
0.4332677230 0.1597815981 -0.2339032026
-0.0782562227 -0.5000000000 -0.2085685198
-0.1676094887 -0.0505260335 0.3118021846
0.0706120892 0.5000000000 -0.0410666868
0.4176528307 -0.1749259432 -0.1694217788
0.1487411516 0.0047296410 -0.3374231361
-0.2894712940 0.1727922014 -0.1898887918
-0.1289900941 0.0217577014 0.3375506267
-0.1736750998 0.2536429400 -0.1844616129
0.0071464894 -0.2010436362 0.0124421392
0.2398896968 0.0879673217 -0.3137754371
0.5000000000 0.1013639013 -0.2682307832
0.4497526230 -0.0796475513 -0.0065300392
0.5000000000 0.1596116107 -0.1161811846
0.1458062746 -0.5000000000 -0.1170524105
-0.3795895946 0.1723549400 -0.1319389929
-0.1424484182 -0.1017803843 0.1655764301
-0.1532049064 0.3735333524 -0.2471061048
-0.3304268620 0.1614803541 -0.0949025667
0.5000000000 -0.0968590347 -0.2823210293
0.2190610598 -0.1719235239 -0.1295298503
0.1698238643 0.4348263871 -0.2050387259
-0.1560318327 0.3820460272 -0.2417751775
0.0753437660 -0.5000000000 -0.3141370186
-0.4035473099 -0.0674743946 -0.0009706278
-0.0622672696 0.1308684429 0.3375506267
0.4862688825 0.1027564257 -0.3041979179
-0.1656557991 0.2574104387 -0.1059668304
0.0785331813 0.1564331665 0.1575234856
0.0037095223 0.5000000000 -0.3033562816
0.3789773694 -0.0881885870 -0.0112293866
0.1239104379 -0.1235961902 0.0931743406
-0.1747083199 0.2720996761 -0.1508759807
0.0897617220 0.3927200187 -0.0121770923
0.1232888270 -0.2555526531 -0.2866475614
-0.4696092650 0.1480269376 -0.0690137713
0.1309282239 -0.0819253897 -0.3171425362
-0.5000000000 0.0081018672 -0.0028460663
0.4497614740 0.1240849711 -0.2858220329
0.0830351879 -0.3492093307 -0.0083416560
-0.0061628974 0.3683172719 0.0124088979
-0.2573759446 -0.1749287674 -0.1674918325
-0.3096894397 -0.1278402467 -0.2819900936
-0.1288002201 0.3579681445 -0.0440798643
0.0163143972 -0.1742270564 0.2690939461
0.1362459189 0.5000000000 -0.1918033053
0.1070014172 0.4284032480 -0.3010020591
-0.1729460760 0.2377726451 -0.1892233356
0.2842295361 -0.1750583205 -0.1635603513
0.1650454262 -0.3417899682 -0.1041096283
0.2730116033 -0.1015454393 -0.3049897364
0.0469954306 -0.0673058653 -0.3311118983
0.1528412740 0.0852628247 0.0765306701
0.3764097512 -0.1738326322 -0.1417668165
-0.0514105212 0.4160402005 -0.3297831043
0.1649635139 0.1174244504 -0.0325552754
-0.0475402576 0.4098510880 -0.3309400519
-0.4830481917 -0.0941370066 -0.3100884363
-0.4867340667 0.1493893379 -0.2536342146
-0.2957156808 -0.1053533033 -0.3022750101
0.0903247246 0.1499889860 0.2054445417
-0.0410708023 0.2227531961 0.0077496209
0.3998819753 -0.1738947332 -0.1424250121
-0.2729440123 -0.0132002807 0.0120803983
-0.0383636350 -0.2384437334 -0.3332917894
0.0146004065 0.4055562761 -0.3369311292
-0.0620379540 -0.4629190791 0.0012478907
0.2037829584 -0.1109223990 -0.2978895357
-0.4833321363 -0.0972762342 -0.3079923026
-0.1382223005 -0.4065850514 -0.2698149467
-0.2051407293 -0.0711964559 -0.3223644331
0.5000000000 0.0452610431 -0.0017366070
0.1698700425 0.4741570146 -0.2044775948
0.5000000000 -0.0265019046 -0.0774804282
0.2616027040 0.1130294002 -0.2960647727
-0.1744564777 -0.0139460084 0.1179980767
0.1244971882 -0.4980036909 -0.0393338742
0.0507843914 -0.1139932959 -0.3299522761
0.0565461350 -0.3690166595 0.0032561209
0.4079581772 0.1638884336 -0.1009802453
0.0760068846 0.3458413265 -0.3200448998
0.2535058728 -0.1733502038 -0.1380435578
-0.3699887800 0.0969020065 -0.3082436260
0.0728282382 -0.3198886683 -0.3216052346
0.1716330052 0.2889560621 -0.1968259096
0.1749186918 -0.3774048920 -0.1548023667
0.0959664856 0.0840202190 0.3375506267
-0.3693138784 0.1670303475 -0.2147583764
-0.4061085892 -0.0955427667 -0.0157682270
-0.3507682018 -0.1108168895 -0.0269935226
0.3519462409 -0.1134182053 -0.2958376992
-0.0390720818 -0.1706224117 0.3128484764
0.1739231316 -0.4297805561 -0.1422823062
-0.3643219577 -0.1559667641 -0.2419737699
-0.1311928109 0.2992346479 -0.2783004157
-0.0424852092 -0.0191265657 0.3375506267
0.0050607313 -0.2567616305 0.0125180429
-0.5000000000 -0.0493092429 -0.2800077097
-0.1470946204 0.1986127855 -0.2572848712
-0.5000000000 -0.0757675316 -0.0737047590
0.3474905554 -0.1531942433 -0.2470713410
0.1732170658 -0.3781158999 -0.1376352380
-0.0955084778 0.1045662584 0.3375506267
0.2951900303 -0.1750256465 -0.1577413258
-0.5000000000 0.0156729859 -0.2715090509
0.4647157365 0.1629831857 -0.2261322061
0.2501022912 0.0864352224 -0.3147199592
-0.4030512947 0.0181239234 -0.3365574893
0.1746019146 -0.4240503775 -0.1747806176
-0.1728944247 0.0275158281 0.2797366094
-0.1730378588 0.0262813981 0.1372376858
0.1748944852 -0.3533150765 -0.1550351786
0.2918181557 -0.0700023786 -0.3228503829
0.0409979590 0.1701622189 0.2842873681
-0.1602206306 0.4292122036 -0.0920394500
-0.4175615420 0.1072304247 -0.3008128896
-0.4363747595 0.1750459096 -0.1630907992
0.1675204901 0.3022743066 -0.2132016069
0.0852004218 0.3343649997 -0.3152910079
0.4517141211 0.1734175136 -0.1863376462
0.3377194873 -0.1731067715 -0.1364305127
-0.3360511194 0.0414577616 -0.3324822398
0.4732324126 -0.0896152073 -0.3128196391
0.4015607404 -0.0789723450 -0.3186709885
-0.0405407029 -0.2577602872 -0.3327154878
0.1064866684 -0.1452383351 -0.3014325765
-0.1318995868 -0.0051071946 -0.3373958935
-0.1349624642 0.4170388916 -0.0508947320
-0.0677856073 -0.1562824980 0.3375506267
-0.1619522686 0.0244940339 -0.3357373376
-0.0771282435 -0.5000000000 -0.0962545481
-0.3728017517 0.1750089784 -0.1654141979
-0.1742520151 -0.2052507208 -0.1452553484
0.4115402445 0.0592543540 0.0022499347
0.4057970196 -0.1232025828 -0.2867715501
-0.2640959362 0.0660606485 -0.3245270962
-0.5000000000 0.1330119434 -0.1290141146
0.0419563640 0.1638244869 -0.3323698977
-0.1713908810 -0.3742441785 -0.1268406915
-0.2395948097 -0.1590573662 -0.0892602810
0.1205878079 -0.5000000000 -0.2110200705
0.1269489225 -0.1205959610 0.0525535434
-0.1956032573 -0.0964769672 -0.0164333306
-0.5000000000 0.1082204713 -0.2487817513
0.1711674366 0.3133527339 -0.1990273738
-0.1457503719 -0.0969805819 0.2505037079
0.0102070061 -0.1205218964 -0.3372139410
0.1384912053 0.2482316305 -0.0553438373
0.0005973564 0.5000000000 -0.1630025198
0.4625708189 -0.1305810766 -0.0458427978
0.1607545897 -0.0693660008 0.2544892614
0.1488221007 0.5000000000 -0.2191287295
-0.4602430861 0.0588813382 -0.3272702210
-0.5000000000 0.0332503577 -0.0486167107
0.0377328810 0.5000000000 -0.0859746769
-0.1449214700 0.3415326435 -0.0641990648
-0.5000000000 -0.0023812547 -0.2785049724
0.1627334411 -0.0139475467 -0.3369131070
-0.5000000000 0.1621712110 -0.1698086522
-0.0571322140 0.1109596943 -0.3278943964
-0.1629874251 0.4044415831 -0.0986854203
-0.1580202796 0.0266094753 0.3375506267
0.2074048440 -0.1236035444 -0.2862532597
0.1073564354 -0.1784013776 -0.0241599252
0.1193310607 0.1280017694 0.1679190582
-0.0406605310 -0.1702531923 0.1309637631
0.1442597023 -0.3000687758 -0.0632323908
0.0918620936 -0.1490448357 0.0169157294
0.4951645699 0.0910651192 -0.0129835053
-0.0008885580 0.0460800079 -0.3374569534
-0.1645180033 0.3983425943 -0.2223885458
-0.5000000000 0.1084449942 -0.0298348616
-0.1750615348 -0.0018156052 0.0172361443
-0.1199517980 0.2621953368 -0.0349296415
0.5000000000 -0.0599642766 -0.0618826857
0.4430287583 0.1654106860 -0.1053149032
0.1231941949 0.1492104863 -0.2867553406
-0.1314618089 -0.1156009839 0.1735690790
-0.4487780393 -0.1747318681 -0.1734752519
0.1171721554 0.0603492803 -0.3267209583
0.1175244136 -0.1297158119 -0.0271854570
0.4072510273 -0.1657106754 -0.1060161334
0.1909039421 -0.0644851193 0.0003032517
0.5000000000 -0.0659817106 -0.0366794775
0.0490927180 -0.4512092819 -0.3305214575
0.2405610123 -0.1400037303 -0.2675118509
0.1318973728 0.3312115094 -0.0473060346
-0.0648113465 0.0348896670 -0.3339602544
-0.1551164157 -0.0109715254 0.3375506267
0.0216592949 -0.2712273858 -0.3361442315
0.1669294040 -0.0526667286 0.0510665350
0.2051042466 0.1660562722 -0.1071682435
-0.4255635418 -0.0320414600 0.0096506740
0.3944600093 -0.1690330499 -0.2078950314
0.1587154759 -0.3560189567 -0.0886549740
0.2613631887 0.1747202208 -0.1737567149
-0.1746373066 -0.4267929464 -0.1501234130
-0.0982539240 0.3162892726 -0.3072898898
-0.0596417690 -0.5000000000 -0.3247695688
-0.3305379348 -0.1608785832 -0.0933352073
-0.0548353073 0.3245819567 0.0037283905
0.0409186140 -0.2294786240 0.0077179065
0.0875877339 0.5000000000 -0.0959151690
0.0359349046 0.4846996049 -0.3337882029
-0.1107826273 0.2032944684 -0.0269011697
0.2793743999 0.0681068916 -0.3236884615
-0.1395823362 -0.2035224463 -0.2681288011
-0.3413487514 0.1528827453 -0.2477584384
0.0096279403 0.4759418150 0.0123852263
-0.0195473843 0.5000000000 -0.2660582022
-0.1294621508 -0.1178295398 0.1862430546
0.5000000000 -0.0602225274 -0.1989040090
-0.3420979957 0.1017986464 -0.0199907003
0.3486471675 -0.1679680613 -0.1132073121
0.3315389001 0.0201611901 -0.3362979232
0.1924974244 0.1503157381 -0.0726785295
-0.1537597165 0.2106888529 -0.2459505296
0.1060880670 0.1392873252 0.2514797345
0.4851903040 -0.1581113140 -0.0875493790
-0.4255645718 -0.1258753351 -0.0407953157
-0.4732676517 -0.0502869992 -0.3301367312
-0.1642371067 -0.0604048680 0.2502801513
-0.5000000000 0.0107333541 -0.0413305879
-0.0836309829 -0.3266644597 -0.3162104912
-0.4710925596 0.0685313898 -0.3234426147
-0.1282815195 0.3188312417 -0.0433385533
0.1564290123 0.3587441202 -0.0838334139
0.0209029323 0.1761961590 -0.3362507067
0.5000000000 0.0111850185 -0.0220471014
-0.0025077391 0.1750447696 0.1169626789
-0.1188150290 0.5000000000 -0.0734707814
0.1689177180 -0.0459722229 0.1335238747
-0.1263388014 -0.4454822465 -0.2836669127
-0.0735870690 -0.3675900594 -0.0036230507
0.2442142563 0.1727581101 -0.1341846056
-0.1740301316 -0.2894667925 -0.1812122456
-0.1754553787 -0.1596289356 -0.2344111881
-0.1641716101 0.2126513921 -0.1017893529
0.1619023967 0.0664543058 0.2826042232
-0.1654645771 -0.4045930769 -0.1052235831
-0.0421491167 0.5000000000 -0.2790210862
-0.1748224137 -0.0095974851 0.1145680672
-0.1502523869 -0.0897735421 0.3274538629
-0.0686719576 0.1610639390 0.0968326455
-0.2477974644 -0.1727033901 -0.1908657228
-0.3669584956 -0.0689412469 -0.3233905358
0.2685882318 -0.1652925383 -0.2201506540
-0.5000000000 0.1066999937 -0.0387700429
-0.1622827379 -0.4624534015 -0.0969055418
0.3962834674 0.1728099047 -0.1346135327
-0.0990901481 -0.3130352808 -0.0181673695
0.0876461641 0.2061755067 -0.0109339002
0.1276322062 0.2874046294 -0.2822053650
-0.3103287359 0.0190525527 -0.3365128894
0.0236685194 -0.3972843256 0.0109939030
0.1883914452 0.1334493646 -0.0492213646
0.4153455134 0.1623250601 -0.0969202873
0.0219318731 -0.5000000000 -0.2518299655
0.0289498109 -0.3909891991 0.0101888796
-0.0293059650 -0.4823876989 0.0100912133
0.1648906709 -0.0588500885 0.3016419904
0.2100165628 -0.0427109771 0.0072430840
0.1194313896 0.2053529099 -0.2904954486
-0.2596365770 -0.1130753200 -0.0288766810
-0.1749674703 0.3904145779 -0.1690909591
0.2628837914 -0.1406168250 -0.2666174579
0.0709621411 0.1582380598 -0.3224944518
-0.1637596558 -0.4083543316 -0.1006398367
-0.0271480511 0.5000000000 -0.1176421023
-0.5000000000 -0.0869944993 -0.1257486031
0.2118570962 -0.1637182679 -0.2242734388
0.3526162598 -0.1224130003 -0.2876153568
-0.0296484835 -0.1724495766 0.3210586901
-0.1714380613 0.3206186435 -0.1978477690
0.2330246295 0.1730795080 -0.1361125846
0.4543225207 0.1441681691 -0.0630678375
-0.0329230770 -0.1719060309 0.1172031747
-0.0206617951 0.0568321987 -0.3362407711
0.0246833685 -0.4032458328 -0.3357292980
0.1714633364 -0.0352543012 0.1422422480
-0.2901086451 -0.1331987227 -0.2759688160
0.1356024046 0.3309352909 -0.0517869903
-0.1291065443 -0.2850129846 -0.0442763334
-0.1739163127 -0.1828099724 -0.1425714150
0.2706148800 0.1697076357 -0.1194240269
0.0322835242 0.3468238242 0.0096031169
-0.0515898158 0.0886388262 0.3375506267
0.1719898896 -0.1365598886 -0.2719094440
-0.0254463881 0.0873785608 0.3375506267
-0.2703528617 -0.0252008583 0.0107543327
-0.5000000000 -0.0591351604 -0.0127045861
-0.1745658805 0.0126616108 0.1355187308
-0.5000000000 0.0960795425 -0.2775014124
0.0022676192 -0.1749801983 0.0349193600
0.4327063664 -0.1393510131 -0.2684583862
-0.0578670847 0.1314905170 -0.3276225113
0.0291284705 0.1481835657 0.3375506267
0.1219569812 0.4769252845 -0.0369044799
-0.1483519054 -0.0873978085 -0.3140191916
-0.1045629438 0.2679505265 -0.3028569895
-0.1750543828 -0.3660521787 -0.1634238922
-0.5000000000 -0.0830193031 -0.0683893861
-0.1699191523 -0.0421349116 0.2116158360
-0.1553027014 0.1922074830 -0.2433009592
-0.1716928564 -0.0341005821 0.3118874710
-0.4085907436 -0.0403710933 0.0079115707
0.4130942983 0.0799755191 -0.0067987369
-0.1557405447 -0.0799832939 0.2342718357
-0.1631058315 -0.2454886895 -0.0989070949
0.1676479624 0.0639941074 -0.3253852172
-0.3453947143 0.1749007103 -0.1688181264
0.0238597135 0.5000000000 -0.0190201353
0.1453010990 -0.0666414975 0.3375506267
0.1731739896 -0.0249717243 0.0648575321
-0.0545701005 -0.2230853359 -0.3288139311
0.1034758560 0.0784833243 0.3375506267
-0.0271893298 -0.5000000000 -0.0033892706
0.1680981291 -0.0488833910 0.2213524744
0.1950473677 0.0595962599 -0.3270448913
-0.5000000000 0.0817108749 -0.1046660503
0.1619042949 0.4619956029 -0.2290279828
-0.3292819331 0.1725936201 -0.1333961253
-0.1645444079 -0.0596457759 0.2692448140
0.1735888288 0.2995517974 -0.1853152945
0.1631981732 0.0633664117 0.1927295505
0.5000000000 -0.0476810693 -0.2566458871
0.1776383783 -0.0271649764 0.0104973141
0.4595986245 -0.1393472717 -0.2684394872
-0.4629812681 0.1568689127 -0.2402313956
-0.2775135300 0.1336001871 -0.0493971776
-0.1809294180 0.1668432613 -0.2153289551
-0.4873139313 0.1721894794 -0.1312022802
0.0398971003 0.1000586362 0.3375506267
-0.5000000000 0.0026668560 -0.2763530381
-0.3884351419 0.0233476452 -0.3359383726
-0.1218868336 0.2503189610 -0.2880513995
-0.3109693441 -0.1581844876 -0.2372862313
0.1591191975 -0.5000000000 -0.2070475986
-0.1748051695 0.2080015455 -0.1535005179
0.1191005072 0.0767933493 0.3375506267
0.1301294122 0.4803057835 -0.0453616051
-0.1928787277 0.1596269475 -0.2341278066
-0.1749505444 0.0028460839 0.1455164358
-0.0606697174 0.2530048928 -0.3266837558
-0.3529706463 0.1545341145 -0.0801915330
0.2049283866 -0.1455341495 -0.2597647480
-0.1262700415 -0.1521538588 -0.2837357262
-0.4409282983 0.1113243359 -0.2975293198
0.4504265852 -0.0414718755 0.0076085107
-0.1702031166 0.0409815180 0.2878692253
0.1302719436 0.2967844205 -0.0454732436
0.0068166255 -0.5000000000 -0.2064401298
0.2992762462 -0.1592435092 -0.0898023574
-0.3600428317 0.0260524408 -0.3355867790
-0.5000000000 -0.0056540543 -0.1330018265
0.5000000000 -0.0218031292 -0.3080427082
0.3279468768 0.0509487623 0.0049696210
0.1528997381 0.5000000000 -0.1561949199
-0.0290429214 0.2222270753 0.0102046822
0.0736400726 -0.5000000000 -0.3168082990
-0.0637537713 0.5000000000 -0.1194074885
0.1211420122 -0.3878113483 -0.0361250014
-0.1175379546 -0.5000000000 -0.0613111469
0.0107962699 -0.2592008800 0.0122801249
0.3061729560 -0.1414294766 -0.2655325797
0.1087534636 -0.2679990170 -0.2996813186
-0.2426200449 0.0139792109 0.0120892279
0.0923533136 -0.4016965264 -0.3111769242
0.3525845751 0.1675367647 -0.1118955147
0.0161667625 -0.1114001279 0.3375506267
0.5000000000 -0.0491034291 -0.1328992145
0.0071495084 0.4795585161 -0.3373045746
0.1667311988 0.0532983902 0.2039950135
0.0316459934 0.1721647302 0.1325423311
0.4540403797 0.0808248523 -0.0071684426
0.1877224211 -0.0225628311 -0.3360252388
-0.0781373201 -0.5000000000 -0.0842525527
0.1430591675 -0.1008910948 0.0355140036
-0.3034527738 0.0487131465 -0.3304649331
0.0301584562 -0.1723589372 0.0299780269
-0.5000000000 -0.0360833945 -0.1214639386
-0.1420924960 -0.1830496426 -0.2646889584
-0.3404236179 0.0583034177 -0.3275195566
0.5000000000 0.1567323547 -0.1095655853
0.1560681539 -0.5000000000 -0.1312007730
0.1134669453 -0.4369167616 -0.0291855727
0.1716927419 -0.0340220068 0.0222279378
-0.1304073430 0.2496091252 -0.2791904699
0.4759917873 0.1088159080 -0.0252847110
0.3290278536 0.1749931458 -0.1659265508
-0.1691262209 -0.0040568911 -0.3374511072
0.3618031400 -0.1555965566 -0.2425532613
-0.5000000000 0.1535105654 -0.1607429711
-0.4073771909 0.1188277134 -0.0339145453
-0.1744326897 0.0146114776 0.2726014330
-0.1318638161 0.1566745787 -0.0472624659
-0.1013357463 0.4760136402 -0.0197245270
0.3111610762 -0.0569113616 0.0031206399
0.1719557597 0.4949206813 -0.1952781132
-0.0609133306 0.5000000000 -0.3079522942
-0.1970118666 -0.0332563019 -0.3343578984
-0.0971844489 0.1455869226 0.2864976547
0.0731683680 -0.5000000000 -0.2786732202
0.2124262477 0.1721053373 -0.1305950712
-0.1253649768 0.4825352759 -0.2845749805
0.0110818120 -0.1747464132 0.0892098180
0.1203382410 0.2921393093 -0.0353469782
-0.0558672222 -0.2932805626 0.0034154857
-0.1650958315 -0.3415903160 -0.1041454162
-0.1733176887 0.0243460288 0.1231192641
0.4660416293 -0.1692948430 -0.1178175919
0.1065874602 -0.5000000000 -0.1796849065
0.1680050115 0.3134759611 -0.2117552372
-0.0583407487 -0.3523356788 0.0025641982
0.3156821206 0.1717592468 -0.1964417825
0.0546275858 0.4851437404 0.0038865141
-0.5000000000 -0.0524504979 -0.2336338587
-0.0917981646 -0.5000000000 -0.1307576806
-0.3218922102 -0.1610875393 -0.0939510233
-0.0319856888 0.1721461002 0.1370788045
-0.0940847564 0.4821009356 -0.3100035432
-0.0338838496 0.2507633631 -0.3341879051
0.0894897823 0.4814591217 -0.3129493044
