-0.0114322854 -0.0219846297 -0.4609566231
-0.0136788212 -0.0162407756 -0.0811038570
-0.0034861552 -0.0219846297 0.2410458767
0.0323078463 0.0219846297 0.3416704179
-0.0158229773 -0.0219846297 -0.1065836147
-0.0238971527 -0.0219846297 -0.2798749041
0.0320757628 -0.0076904611 -0.1417877747
-0.0226359184 -0.0219846297 -0.3980040558
-0.0329084918 -0.0219846297 0.2625239421
0.0517714189 -0.0219846297 0.0031243814
0.0464906259 -0.0219846297 0.2607006638
-0.0389335669 -0.0219846297 -0.3075593196
0.0581637492 0.0219846297 -0.2968375007
-0.0131477411 0.0219846297 0.2651109439
0.0807467026 0.0066518285 0.0032186868
0.0725459089 -0.0219846297 -0.0519020675
0.0211763226 -0.0219846297 0.1484446333
0.0668816219 -0.0219846297 0.4347711370
-0.0413038445 0.0181999860 0.0587579230
-0.0744349482 -0.0094407368 -0.3563960337
-0.0846116748 -0.0084266712 -0.4706923189
0.0601943566 0.0081086832 -0.3208122076
-0.0656452292 0.0219846297 -0.3398809519
-0.0231518943 0.0219846297 -0.4134960628
0.0423103240 -0.0219846297 0.1876205485
0.0002169218 -0.0219846297 -0.2394131888
0.0013494239 0.0219846297 -0.2982895038
-0.0427097406 -0.0219846297 -0.0376781947
0.0814722992 0.0204171441 0.0297933020
-0.0042950228 -0.0151023857 0.4454582328
-0.0358864856 -0.0219846297 0.3690569066
0.0812332650 0.0007716456 0.1516297093
0.0040982342 0.0219846297 -0.4992328364
0.0651255075 -0.0219846297 0.0774506355
0.0761414401 -0.0034773647 0.2260717449
-0.0723599665 -0.0219846297 0.4293276334
0.0139700077 0.0219846297 0.2164430541
0.0762756013 0.0083894848 0.4549676440
-0.0469185249 -0.0219846297 -0.0423049172
-0.0529892921 -0.0219846297 -0.2940868457
0.0716935957 -0.0219846297 -0.1404834036
0.0224439562 0.0219846297 -0.3639978250
-0.0173665887 -0.0219846297 -0.0735330438
-0.0345580732 0.0219846297 0.3120557421
-0.0150911800 -0.0219846297 0.1917652871
0.0203616994 0.0219846297 0.1525724789
-0.0243821944 0.0219846297 0.0113669338
-0.0384660783 0.0090697562 0.2528468546
-0.0042156666 0.0219846297 0.4665999045
-0.0176053994 0.0219846297 0.1021037936
-0.0410045984 0.0219846297 0.2861798735
-0.0577309968 0.0219846297 -0.2801647512
0.0655843487 0.0219846297 -0.0549441902
0.0114985889 -0.0219846297 -0.3745278705
0.0759264436 -0.0219846297 0.1645786010
0.0035671376 -0.0219846297 -0.3725815665
-0.0237565465 0.0219846297 0.3874186950
-0.0692597676 -0.0186610553 -0.2988452812
-0.0501358916 -0.0219846297 0.4120159724
0.0214807051 0.0219846297 0.3544864505
-0.0139644621 0.0219846297 -0.0027734243
-0.0281485713 0.0219846297 0.4522977473
-0.0619998235 0.0219846297 0.3591808081
0.0782742633 0.0219846297 0.1003247989
-0.0030631423 0.0219846297 -0.3906252274
0.0454103198 0.0219846297 -0.2043524659
0.0392671883 -0.0075204708 -0.0931874995
-0.0470708572 -0.0198643459 -0.0323407618
-0.0378485007 0.0127565192 0.2389495878
0.0359382224 0.0219846297 0.2149264827
0.0440759279 0.0210318375 0.0504656239
0.0553120657 0.0219846297 -0.0181805904
0.0450649260 -0.0120799548 0.0495195412
-0.0034618202 0.0219846297 -0.3436767538
0.0818500532 0.0131079705 0.1290278984
-0.0371033652 -0.0124063620 0.1861399073
-0.0211276879 0.0132966941 0.3876317435
0.0248015352 0.0219846297 0.0977322993
-0.0091031265 0.0064700131 0.3813289330
-0.0348124588 -0.0219846297 0.1401545349
0.0421344076 0.0085444253 -0.0601457175
-0.0644804415 0.0083221084 0.3542220557
-0.0765381728 0.0202066982 -0.3797938273
-0.0051588230 -0.0219846297 0.1348177047
0.0519947055 0.0047405570 0.3185606369
-0.0500031928 -0.0219846297 0.3499409377
0.0247630899 -0.0008081316 0.3915541380
0.0573162619 0.0219846297 -0.1448386698
-0.0263960540 -0.0219846297 0.3365081517
0.0203290245 -0.0219846297 -0.1884185170
0.0706116450 0.0219846297 0.1335198507
-0.0357331282 -0.0219846297 -0.4120662801
0.0346416781 -0.0219846297 0.1666133026
0.0258137390 -0.0219846297 0.4604211758
-0.0398475597 -0.0219846297 -0.3323717326
0.0801827318 -0.0135884299 -0.0135612581
-0.0432221501 -0.0103073415 -0.5000000000
-0.0860448334 -0.0186261115 -0.4871500851
-0.0056207292 -0.0219846297 0.1786888490
-0.0138019946 0.0219846297 0.1587044378
0.0780640438 0.0134680364 -0.0638114862
-0.0465648121 0.0028694018 0.3229139233
0.0746631920 0.0219846297 0.1217363854
0.0071769655 0.0219846297 -0.2976069409
-0.0061095559 -0.0062936347 0.3806398714
-0.0258518985 -0.0125982922 -0.5000000000
-0.0783401738 0.0157015935 -0.3998968474
-0.0416603260 0.0219846297 0.3448461668
-0.0870472709 0.0148808283 0.4111380570
0.0431334558 -0.0219846297 0.2351024190
0.0555611100 0.0219846297 -0.2292306321
-0.0640030609 -0.0219846297 0.4603982644
-0.0626083660 -0.0204933676 0.3523768014
0.0007845730 0.0219846297 0.1011091942
0.0811615072 -0.0153931510 0.0173752562
-0.0451457032 0.0219846297 0.3581883255
0.0432670391 -0.0219846297 0.1942402390
-0.0627906836 0.0032781446 -0.2260707606
0.0369509048 -0.0219846297 0.3804188404
0.0698112449 0.0196069937 -0.1997407720
-0.0413629108 -0.0203083357 0.0576822566
-0.0574623889 -0.0180644219 0.3473847838
0.0538671170 -0.0219846297 0.4317279059
-0.0667370364 0.0121729627 -0.2706458166
-0.0361918346 -0.0219846297 -0.1999449442
0.0506482125 0.0063670009 -0.4251517187
-0.0393648777 -0.0109216147 0.2674003508
0.0764804867 -0.0089740153 0.2229970335
0.0104251948 -0.0219846297 -0.1757513950
0.0567405373 0.0049973937 -0.3598794468
-0.0163366342 -0.0219846297 0.2810919550
-0.0125684779 -0.0219846297 0.2356281239
0.0029848188 -0.0219846297 0.2417211086
0.0429372227 -0.0156129945 -0.0501763518
0.0510710898 0.0192050678 0.3416231862
-0.0620683359 0.0219846297 -0.4285913549
-0.0246909276 0.0219846297 0.0104096155
0.0432896228 -0.0217732966 -0.4993199987
0.0237651750 -0.0219846297 -0.4391979099
-0.0834235022 -0.0111267183 -0.4571428116
0.0703006870 -0.0219846297 -0.1306983205
0.0552575348 0.0105424664 0.3116731286
-0.0437569175 0.0038574743 0.3076377747
-0.0303822868 0.0075506779 0.4005532492
-0.0857447591 0.0176103504 0.4281406192
0.0516390480 -0.0219846297 0.3952931739
-0.0412662055 -0.0099965223 0.2886816374
0.0438783353 0.0131659802 -0.4935397704
0.0430649658 0.0219846297 -0.0527520644
-0.0764049829 0.0124052287 -0.3783114234
-0.0088388307 -0.0219846297 -0.4158974038
-0.0737134933 0.0219846297 -0.3744988307
-0.0079898672 -0.0044290037 -0.0008962013
-0.0180554039 0.0219846297 -0.4963907045
0.0782242406 0.0116228141 -0.0604466849
-0.0104456320 0.0173781108 -0.0310336576
-0.0098024976 0.0096634987 0.4440996123
-0.0207896348 0.0219846297 -0.1285848300
0.0359411651 0.0219846297 0.1000855880
0.0474241978 0.0049882330 -0.4581868622
-0.0559238006 0.0026213547 -0.1459940033
-0.0383570099 0.0219846297 -0.2975755233
0.0576878670 -0.0189028402 -0.3493362836
0.0060903672 -0.0219846297 -0.3175107594
0.0665526353 -0.0219846297 0.1236399666
0.0259060770 0.0219846297 0.1839784446
0.0011282618 -0.0219846297 -0.2126593793
-0.0273461199 0.0219846297 0.1616170150
-0.0550744659 0.0219846297 -0.3330119739
-0.0583259564 0.0145729356 -0.1744990050
-0.0439081408 -0.0219846297 -0.0950827392
0.0113436695 0.0219846297 0.4581879940
-0.0796011048 0.0219846297 -0.4762724793
0.0337656487 -0.0219846297 0.4370727162
-0.0371337304 0.0102234517 0.2057543779
-0.0119132758 -0.0219846297 0.1182073242
-0.0386028450 -0.0040906105 0.2554177566
0.0326892037 0.0219846297 -0.4325464736
-0.0216506720 0.0219846297 -0.0955980133
0.0188437777 0.0219846297 -0.4297379973
0.0503962962 -0.0219846297 0.3640994442
-0.0338320934 -0.0219846297 -0.1000894085
0.0309514255 -0.0219846297 0.1388619634
0.0320024792 0.0219846297 0.3936092327
-0.0475880859 0.0219846297 -0.4497304797
0.0733983973 0.0035627029 -0.1468334744
-0.0119768739 0.0045579670 -0.0527228670
-0.0316218517 -0.0219846297 -0.4315503690
-0.0025384383 0.0219846297 0.0746350737
0.0291002388 0.0219846297 0.4562682345
-0.0076687068 0.0219846297 0.4703321739
0.0024972706 0.0219846297 -0.3491804005
-0.0475745093 0.0219846297 -0.2980430592
-0.0207758038 -0.0219846297 -0.1698408722
0.0349316563 0.0219846297 0.0566300139
0.0816127463 0.0120075411 0.0361157091
-0.0194365512 -0.0219846297 0.2306711607
-0.0332268097 -0.0219846297 -0.2599631512
0.0478344552 -0.0044377844 -0.4540319954
-0.0082133627 -0.0219846297 -0.2627660732
0.0251941057 0.0219846297 0.3179817673
0.0524745547 0.0219846297 0.3899771195
-0.0546570608 -0.0219846297 -0.2712141620
0.0275894990 0.0219846297 -0.1945525523
0.0772975637 -0.0219846297 -0.0450110107
0.0299214355 0.0219846297 0.2368944783
0.0817958441 -0.0045036486 0.1315276165
0.0486853096 -0.0219846297 0.3722637629
0.0437160393 -0.0219846297 0.3200869630
0.0461302877 0.0219846297 0.1416817710
0.0797337513 -0.0156471736 0.1836270238
-0.0096287653 -0.0219846297 0.3230933297
0.0472448890 0.0102647059 -0.4599944760
0.0532452026 -0.0219846297 0.1323072558
-0.0713321572 0.0219846297 0.4209768304
0.0655482378 -0.0219846297 0.2620933307
0.0447967898 -0.0087456017 -0.0254827336
-0.0023902774 0.0219846297 0.0824192522
0.0701038962 0.0219846297 0.1873254471
-0.0385707290 0.0083774907 0.1187072443
-0.0435144509 -0.0219846297 0.4370320196
0.0864292494 -0.0194481188 0.4016222596
0.0446002571 -0.0118196981 -0.4864195944
-0.0228364773 0.0219846297 0.3481327926
-0.0193800238 -0.0219846297 -0.0913362006
0.0243401881 0.0219846297 -0.1780264473
0.0041086238 -0.0219846297 -0.3953698375
0.0743380295 -0.0012267103 -0.1317677747
-0.0002591749 -0.0219846297 -0.3622124477
-0.0477800231 0.0007719120 0.3281669216
-0.0068602598 0.0219846297 0.0181172735
0.0508687694 -0.0219846297 -0.3017490821
0.0113916105 -0.0157007417 -0.1508494171
-0.0432293142 0.0219846297 -0.4427086078
0.0734532810 -0.0219846297 0.2221411745
-0.0370224645 0.0219846297 -0.3174471681
-0.0151117475 -0.0219846297 0.0866727137
-0.0476092117 -0.0219846297 -0.0510553265
-0.0446471123 -0.0219846297 -0.0645639969
0.0347207174 -0.0219846297 -0.4665650590
-0.0550545692 0.0219846297 -0.3785745914
0.0794861232 -0.0219846297 0.0356072566
0.0366283758 -0.0219846297 -0.4841716849
0.0357295837 -0.0219846297 0.1140215104
0.0789091797 0.0009729380 -0.0454233970
-0.0113113120 0.0219846297 0.1376323214
-0.0324402901 0.0219846297 0.2754375000
-0.0682944918 0.0040879877 0.3587170160
0.0229751147 -0.0219846297 -0.2136985897
-0.0302873146 -0.0219846297 0.1532430981
0.0378900389 -0.0219846297 0.1028041150
-0.0008436286 0.0219846297 0.2048494974
0.0271140783 -0.0219846297 -0.1870323912
0.0288166841 -0.0219846297 -0.4725796268
0.0220396786 -0.0219846297 -0.4200512202
0.0461167272 0.0022446489 -0.0063080841
0.0656293913 0.0114395020 0.3555469414
-0.0815354685 -0.0219846297 0.4297041750
-0.0660664090 0.0219846297 -0.3674553819
-0.0377356639 0.0009252938 0.2356950306
-0.0051493380 0.0219846297 -0.4954958385
-0.0456452264 0.0219846297 -0.3807545146
-0.0406848027 0.0219846297 0.0673354627
0.0691372985 0.0138271752 -0.2090588290
0.0494734634 -0.0219846297 0.1696840420
0.0577372082 -0.0219846297 0.0041285197
-0.0626961795 -0.0219846297 -0.3093059883
-0.0160131079 -0.0219846297 -0.0990141536
0.0034601758 0.0219846297 -0.3044878463
0.0365231759 0.0219846297 -0.3567345642
0.0870681307 0.0178197058 0.4092943214
0.0399361181 0.0053786810 0.0537029949
-0.0134416511 0.0163502675 -0.0767819127
0.0867679478 -0.0065365223 0.4048792228
-0.0374835752 -0.0219846297 -0.1406803541
-0.0585477299 -0.0032111687 -0.1770991312
-0.0291557292 0.0219846297 -0.1518489357
0.0046817343 0.0219846297 0.1561312038
-0.0470599609 0.0219846297 0.3568373979
0.0723311421 0.0153033513 -0.1632489286
0.0507906295 -0.0098377343 -0.4236718338
0.0039628158 -0.0188053526 0.4998453388
-0.0331857164 -0.0219846297 0.2473880532
-0.0189982088 -0.0219846297 -0.2631701843
-0.0305021555 -0.0219846297 -0.3073223086
-0.0540373915 -0.0096456814 0.4810850030
-0.0635667811 -0.0028386394 -0.2348957270
0.0081571997 -0.0219846297 0.2067941670
-0.0224768377 -0.0219846297 -0.2658156524
-0.0149767128 -0.0128942277 -0.5000000000
0.0589811599 0.0090726557 -0.3347331129
0.0430803094 -0.0219846297 -0.3182442543
-0.0318842754 0.0219846297 0.1579078949
-0.0313173128 0.0219846297 -0.0280936786
-0.0822072025 -0.0043268347 -0.4433498091
-0.0500772438 0.0219846297 0.4643580429
-0.0493860938 0.0219846297 -0.0739846343
0.0238894629 0.0219846297 0.2178994024
0.0420722167 -0.0026050871 -0.5000000000
0.0059492602 -0.0219846297 -0.3692238628
-0.0699672332 0.0086494439 0.4646899773
-0.0158613289 0.0219846297 0.1033994909
0.0599418117 0.0219846297 0.0890028715
-0.0546213693 -0.0219846297 -0.2428309441
-0.0800937826 -0.0186991524 -0.4195372842
0.0573032310 -0.0109140050 0.4784163457
-0.0699601087 0.0219846297 0.3650924608
-0.0684934042 0.0219846297 -0.2910553336
0.0614048187 0.0219846297 0.0994688519
0.0483700884 -0.0219846297 -0.3866268485
0.0689239439 0.0058538125 -0.2119649448
-0.0147337752 0.0219846297 0.4440743989
-0.0039231266 -0.0013862487 0.4453001364
-0.0139391070 0.0195849580 -0.0859899744
-0.0691632029 -0.0188285870 0.4658308720
0.0754002195 -0.0086226114 -0.1139608375
-0.0350910720 -0.0219846297 0.3826726778
0.0728590495 0.0110679298 0.2502937171
-0.0069103411 0.0219846297 0.1463064007
0.0453955452 -0.0219846297 -0.3153022072
-0.0114793905 0.0219846297 -0.3582326378
-0.0417810415 0.0042330370 0.2931276969
0.0796272254 0.0208449587 -0.0282457162
0.0524529149 0.0165196263 0.3176106412
0.0794210923 0.0105103314 -0.0333445700
-0.0012837071 -0.0219846297 -0.2976123300
0.0001743845 0.0219846297 -0.4060605595
0.0578640453 0.0082645665 -0.3473583953
-0.0803276496 0.0048919717 0.4464995303
0.0407482922 -0.0123614121 -0.0766008708
-0.0426132649 -0.0219846297 -0.3543202406
-0.0626835457 0.0043037069 -0.2248499427
-0.0190532797 0.0219846297 -0.0150675455
-0.0528987764 0.0219846297 -0.1691900093
-0.0817622388 0.0197951804 -0.4383212644
0.0695428012 0.0150145675 -0.2034674354
0.0532571766 -0.0219846297 -0.1699177657
0.0526654388 -0.0219846297 -0.0182265764
-0.0549529239 0.0219846297 0.4256394352
-0.0246832469 0.0219846297 0.2486691586
0.0181793504 0.0219846297 -0.4587013333
0.0027612608 0.0219846297 0.1153203467
0.0765239688 0.0028654741 -0.0939188944
-0.0371554164 -0.0142310421 0.2082678661
-0.0320349277 0.0219846297 -0.3249081591
-0.0529906762 0.0219846297 -0.2543701372
-0.0396020399 0.0162643065 0.0932030328
0.0327891805 0.0219846297 -0.2451861305
0.0190096952 0.0219846297 -0.3870744727
0.0565726498 0.0219846297 0.3961508765
-0.0431477443 -0.0219846297 -0.2675141570
-0.0100454247 -0.0219846297 0.4622228348
0.0329479561 -0.0219846297 -0.1459895183
0.0265225090 0.0219846297 -0.2106717852
-0.0418365589 -0.0025559652 0.2935718239
0.0285657042 -0.0073553878 0.4951232476
-0.0076107058 -0.0219846297 -0.4999608313
-0.0132534527 0.0058436772 -0.0734562989
-0.0346947662 -0.0219846297 -0.1367719427
-0.0531957675 -0.0039818709 -0.1127021870
-0.0336863264 -0.0219846297 0.3299165875
0.0291293466 0.0219846297 0.1217059554
0.0445218983 0.0219846297 -0.0935797655
-0.0422266842 0.0195010584 0.0422157344
-0.0461863045 0.0006720611 -0.0197472798
-0.0813408664 0.0190620368 0.4438916056
-0.0770923096 -0.0047335795 -0.3859688673
0.0473340102 -0.0219846297 -0.1703629655
-0.0181638940 0.0219846297 0.0273931720
0.0018486805 0.0219846297 0.3471429527
0.0665395593 -0.0219846297 0.2540125608
0.0498961340 -0.0219846297 -0.4212485720
0.0400559872 -0.0219846297 0.3434765391
-0.0520188634 0.0219846297 -0.3153466493
0.0584560558 0.0219846297 0.2375470785
-0.0386538453 -0.0219846297 0.3851277800
0.0046324369 -0.0219846297 0.1333337990
-0.0740400380 0.0030552633 -0.3520071522
-0.0870956776 -0.0075083325 -0.4993036890
-0.0566112744 -0.0219846297 0.4057595226
0.0375842004 0.0219846297 -0.3168712548
-0.0081978909 -0.0219846297 -0.2742657558
-0.0399028048 0.0219846297 -0.3756723231
0.0537583804 -0.0126304434 -0.3923440440
0.0375143257 -0.0219846297 -0.2562968811
-0.0370848152 -0.0219846297 0.0527866405
0.0188860237 0.0219846297 0.1957302049
-0.0262363662 0.0219846297 0.1698572444
-0.0061078147 0.0180669690 0.0195129669
-0.0693616320 -0.0219846297 -0.3245922729
-0.0269820630 0.0219846297 -0.4674087587
0.0448251188 -0.0219846297 0.0736078700
-0.0625788581 0.0219846297 -0.4894442690
0.0730079405 0.0078172267 -0.1529210657
0.0689933345 -0.0219846297 0.1797574087
-0.0657294138 -0.0219846297 -0.4311502255
0.0079421009 0.0219846297 0.0827888606
-0.0141016183 0.0048635295 0.4425130082
0.0278939651 -0.0075425159 0.3955348592
0.0169615439 -0.0219846297 -0.1521575560
-0.0776900934 0.0188481475 -0.3926372498
0.0692222563 -0.0208964940 0.2696006076
0.0234456938 -0.0219846297 -0.3350667273
-0.0521577229 0.0219846297 -0.4866949426
0.0213272010 0.0219846297 0.2271477717
0.0555677334 0.0069206285 -0.3727735341
0.0310930417 -0.0219846297 -0.1778116819
0.0230344939 0.0179713786 0.3895525164
0.0781743072 -0.0217533293 0.2053677900
-0.0837658897 -0.0114989856 -0.4610403818
0.0842446008 0.0160769743 0.3906742920
0.0505883570 -0.0219846297 -0.2103898158
0.0614676662 -0.0219846297 -0.0818912549
0.0269457382 -0.0157176298 0.4316346261
0.0372390828 0.0120569574 0.4915535609
0.0511857627 -0.0031238619 0.3420536044
-0.0298332914 0.0219846297 -0.1446940264
0.0117534910 0.0219846297 -0.3422622297
-0.0085930771 -0.0146881495 0.4995052723
0.0811824583 0.0212813851 0.0182374625
0.0207994782 0.0219846297 0.2785733822
-0.0106913205 0.0219846297 0.4584922027
-0.0372114714 0.0219846297 0.3650072332
-0.0300846816 0.0219846297 -0.1735259258
-0.0200635178 0.0219846297 -0.1283858390
0.0821376746 0.0017307618 0.0715499065
0.0721152439 -0.0139653012 0.2547434795
-0.0775746546 0.0219846297 0.4071793149
-0.0706645143 -0.0219846297 -0.4840755952
-0.0382808254 0.0053546064 0.2491953402
-0.0852479099 -0.0032787407 0.4307835636
-0.0678697396 0.0219846297 -0.4062301177
0.0494653219 0.0219846297 0.2272949499
0.0473146541 -0.0219846297 0.0060961437
0.0733406632 -0.0149548495 -0.1477462728
-0.0133756903 -0.0219846297 0.0746370379
0.0388172178 0.0219846297 -0.2486703330
-0.0608791352 0.0042137553 -0.2041756067
-0.0183184916 -0.0173759295 0.4401330704
-0.0124661348 0.0219846297 0.1836639564
0.0654115250 -0.0219846297 0.4366024255
-0.0429180848 -0.0072454411 0.0305191062
0.0155451214 -0.0219846297 -0.2839062324
-0.0544587200 -0.0059382241 -0.1282525441
-0.0548607416 -0.0219846297 0.4681155941
0.0783349825 -0.0219846297 0.0162865850
-0.0288927131 0.0021940234 0.3972345637
0.0367244730 0.0219846297 -0.1821369322
0.0501004808 -0.0064080820 0.3368214954
-0.0300667593 -0.0219846297 0.0052212389
-0.0059378636 0.0219846297 -0.4791692744
-0.0524786161 -0.0219846297 -0.3565737350
-0.0716561167 0.0168351653 -0.3255158764
-0.0303265199 -0.0219846297 -0.4948619359
0.0870787378 0.0098978665 0.4120463506
0.0606899997 0.0219846297 0.2478917702
0.0621653734 -0.0036504535 -0.2976725266
-0.0130476117 0.0219846297 0.0119226580
0.0166770555 0.0219846297 -0.3401885550
-0.0134193620 -0.0057409680 -0.0763890877
0.0301830237 -0.0219846297 0.2899452984
-0.0198708360 0.0219846297 -0.0013598073
0.0379346047 -0.0219846297 -0.2403820402
0.0420923925 0.0219846297 0.1764688313
-0.0519472598 -0.0219846297 0.4570145821
-0.0030401491 -0.0219846297 -0.3610659921
-0.0688517740 -0.0187489267 0.4662266876
0.0580872857 -0.0219846297 -0.1528849704
0.0814571678 -0.0098718916 0.0290192957
0.0152875073 -0.0219846297 0.2957806304
-0.0664841661 -0.0075662280 -0.2678083198
-0.0827510276 -0.0061531535 0.3856755703
0.0320280932 -0.0219846297 0.2403660599
0.0782891949 -0.0165995251 -0.0590761013
-0.0188575705 -0.0046339524 0.4397051837
0.0576069367 0.0219846297 0.2901755046
0.0455319885 -0.0219846297 0.4111741153
0.0800007119 0.0219846297 0.0110702753
0.0507189025 -0.0219846297 0.4400824519
-0.0471123455 0.0219846297 0.4629288705
-0.0139696171 -0.0002703816 -0.0866109707
0.0393494021 0.0219846297 -0.4990776004
-0.0688571240 -0.0219846297 0.3744044703
0.0216741057 0.0219846297 -0.3494567424
-0.0042011753 0.0024151497 0.0384820056
0.0474839970 -0.0219846297 0.0989541424
0.0785065518 0.0211466299 -0.0543695055
0.0482512216 0.0219846297 -0.1180974006
0.0333673803 0.0219846297 -0.1499227987
-0.0775760929 -0.0197011247 -0.3913646988
-0.0789289183 0.0111712247 0.3760431874
0.0820133432 -0.0098104342 0.4422046300
-0.0035323706 0.0001496447 -0.5000000000
0.0266573174 0.0219846297 0.1947541967
0.0598371149 -0.0093739856 -0.3249381124
0.0598849481 -0.0219846297 -0.2882285598
0.0232972611 -0.0219846297 0.4661094787
0.0242894008 0.0219846297 -0.4799148699
-0.0006128346 0.0219846297 0.1327960496
0.0281863550 0.0219846297 0.3192280671
-0.0529618151 -0.0219846297 0.4122892752
0.0555234464 -0.0219846297 0.2747210214
-0.0596704341 -0.0118517438 -0.1901962742
0.0292523520 0.0033369447 0.4279563213
-0.0273728116 -0.0219846297 0.0788031425
-0.0175391897 -0.0219846297 0.2387319491
0.0805902313 -0.0139053350 0.1675879211
0.0820432136 0.0161211678 0.1173387412
0.0348738035 0.0170829034 -0.5000000000
-0.0008366273 0.0219846297 0.3314971171
0.0129528561 -0.0219846297 0.0614051803
-0.0524737531 -0.0219846297 -0.2898096274
-0.0495133479 0.0109025621 -0.0656031943
0.0372341646 0.0219846297 0.3761871872
0.0141262767 -0.0219846297 -0.2685535327
0.0301047346 0.0219846297 0.2005249713
-0.0359342980 0.0219846297 -0.0949792688
-0.0304101416 0.0219846297 -0.2152881897
0.0646488084 0.0219846297 0.0757018184
-0.0259254456 0.0219846297 0.4327305917
0.0206624691 0.0219846297 -0.2024556748
0.0816945948 0.0026772326 0.0401152849
-0.0411047326 -0.0219846297 -0.0729163090
0.0493219065 -0.0219846297 -0.2768845695
-0.0341006139 -0.0219846297 0.0556724681
0.0578192088 -0.0203266628 -0.3478625906
-0.0638770492 -0.0219846297 0.4020129861
0.0120713568 0.0219846297 -0.2550228722
-0.0245172400 -0.0219846297 0.3467555310
0.0354920745 -0.0219846297 0.3716567635
0.0564410506 -0.0219846297 -0.0749989142
-0.0762116449 -0.0082160996 -0.3761581339
-0.0290532781 0.0219846297 -0.2140379129
-0.0626637508 -0.0219846297 -0.3879071583
-0.0193727922 0.0219846297 -0.2894239613
-0.0547162329 -0.0072812404 -0.1313919511
0.0570749527 -0.0219846297 -0.1399278626
-0.0774452386 0.0219846297 0.3809192972
0.0028156809 0.0078729150 -0.5000000000
0.0538416140 -0.0219846297 0.2202698426
-0.0503822078 0.0219846297 0.3890948295
0.0274752739 -0.0216872796 0.4954812564
0.0648246321 0.0219846297 0.1610362189
0.0464814455 -0.0200722850 -0.4676800817
0.0683790946 -0.0148515540 -0.2193356894
-0.0814057007 -0.0219846297 -0.4834365361
-0.0379359801 0.0219846297 -0.1058936390
-0.0451343517 -0.0191737950 -0.0042991124
0.0803505196 0.0063960857 -0.0088164708
0.0102027578 0.0117554483 0.3817877833
0.0432329080 0.0219846297 -0.1608427323
-0.0111003609 0.0219846297 0.4638916634
-0.0052940370 -0.0219846297 0.2843059859
0.0061006479 0.0204057194 -0.5000000000
0.0545395347 0.0219846297 0.0667118451
-0.0712692669 -0.0076558734 -0.3212150463
-0.0499436529 0.0219846297 -0.3946863306
-0.0298843294 0.0219846297 -0.3613387651
0.0757348530 0.0029576032 0.2295345611
-0.0338702933 0.0219846297 -0.3430388626
-0.0096851811 -0.0219846297 0.2315997363
0.0286126101 -0.0219846297 0.2555390953
-0.0450794265 -0.0026355991 0.4873943616
0.0081185849 0.0219846297 -0.4884459973
0.0136155427 -0.0219846297 -0.3865561954
0.0707044147 0.0048774394 -0.1871335357
-0.0362873947 -0.0219846297 0.0216609783
0.0448730016 0.0219846297 -0.0437319629
-0.0042438673 0.0219846297 0.4591881363
-0.0176186082 0.0219846297 -0.0200999044
0.0335600812 0.0030826803 -0.1402763307
-0.0070683760 -0.0219846297 -0.4830783964
-0.0380598275 0.0068045234 0.2443294645
0.0402315236 -0.0219846297 -0.4840795168
0.0122777046 -0.0219846297 0.3502356968
0.0647612152 -0.0185367073 -0.2660666584
-0.0644986464 0.0108669326 -0.2454488242
-0.0023298316 0.0219846297 -0.2832757443
0.0356555042 -0.0219846297 -0.3504517339
0.0459320392 -0.0219846297 -0.0224125620
0.0690921056 -0.0150974202 -0.2096741233
0.0740108890 0.0209441758 -0.1370967278
0.0791635785 -0.0170941999 -0.0395306787
-0.0619708387 -0.0219846297 0.4432404452
0.0408375686 -0.0219846297 0.1165870635
0.0701221245 0.0219846297 0.0622847183
-0.0427888400 -0.0102721721 0.4887658260
-0.0779237824 -0.0111405306 0.4516412674
-0.0146638609 0.0152289615 0.4421921572
0.0786388817 -0.0219846297 0.4434687763
0.0463857165 -0.0219846297 0.1814873788
-0.0500417107 0.0057100657 0.3367337517
0.0588740742 0.0219846297 0.0911824028
0.0589916070 -0.0219846297 0.4207637494
0.0164687124 -0.0219846297 0.1718065905
0.0332489077 -0.0219846297 -0.2819425020
-0.0370849071 -0.0135261373 0.1921576119
0.0825822007 0.0202950539 0.4406916417
0.0001992484 -0.0219846297 0.1855474936
-0.0823873101 0.0065656545 0.3845418868
-0.0134592627 0.0219846297 0.4827186610
0.0166871947 0.0153643251 0.4411267040
0.0571525522 0.0219846297 0.3047042690
0.0533478693 -0.0219846297 0.0562222047
-0.0805870259 -0.0089419584 -0.4250795099
-0.0656350462 0.0219846297 0.4316533974
0.0714453057 -0.0080797875 -0.1764092017
0.0357471905 -0.0219846297 -0.4456555911
0.0696497445 -0.0219846297 -0.0027417575
-0.0553700144 0.0195195163 -0.1393246730
0.0512275946 0.0219846297 -0.0126460379
-0.0014004927 -0.0219846297 -0.3129998083
-0.0621744139 0.0219846297 -0.2481417261
0.0505419029 0.0169932504 0.3394638139
0.0786718361 -0.0090043066 0.1991043833
0.0711804246 0.0215983921 -0.1802627727
-0.0490331787 -0.0219846297 0.4151241966
0.0507116933 0.0219846297 0.4430945254
-0.0341576946 -0.0219846297 0.3427220362
0.0743433184 0.0219846297 0.0329996880
0.0448904192 0.0219846297 -0.3943065767
-0.0282335618 0.0219846297 -0.1910963717
0.0537541817 0.0219846297 0.4422275475
-0.0370848156 -0.0122662027 0.1964386951
0.0384874520 0.0219846297 0.4730456476
0.0088323504 -0.0219846297 0.2053811445
-0.0111783903 0.0219846297 0.3721133688
-0.0112923298 -0.0014731349 -0.0426907041
0.0659854933 -0.0036640769 -0.2506374841
0.0240821178 0.0219846297 -0.4551691125
-0.0538829573 -0.0219846297 -0.3158620418
0.0483971015 0.0197791615 0.0314012034
-0.0069312170 -0.0141153919 0.0108336444
-0.0088559886 0.0117388095 -0.0109779011
0.0529469821 0.0219846297 -0.1658519888
0.0169982675 0.0219846297 0.1995136794
-0.0001208055 -0.0219846297 0.0798965161
-0.0573507563 -0.0211487926 -0.1629973325
0.0771944944 -0.0219846297 0.1752654916
0.0831813911 0.0219846297 0.4172685146
-0.0688941377 -0.0219846297 -0.3074866942
0.0315727781 0.0072003868 0.4217618734
0.0752255118 -0.0219846297 -0.0900432215
-0.0831007562 -0.0219846297 0.4187365126
0.0310352123 -0.0180793104 0.4237857007
0.0529886864 -0.0079778574 0.3164331970
-0.0106103941 0.0126697082 -0.1419501899
0.0532458257 0.0219846297 0.1181698602
0.0610246630 0.0219846297 -0.0663117625
-0.0390340961 -0.0004990828 0.1065852796
0.0409639703 -0.0005943579 -0.0740802149
0.0514922190 -0.0219846297 0.2143885667
-0.0289995255 0.0219846297 0.0947715222
0.0742410692 -0.0020587693 -0.1333655188
0.0063727635 -0.0219846297 -0.4681843237
-0.0321820333 -0.0125800209 0.4073318445
0.0784710817 -0.0219846297 0.4278080052
-0.0049885052 0.0219846297 -0.2850749163
0.0494788551 -0.0219846297 0.2941097922
0.0383468953 -0.0219846297 0.3253458790
-0.0712910835 0.0112781392 -0.3214576154
0.0691549820 -0.0219846297 -0.1542060057
-0.0780756610 -0.0100059376 -0.3969413185
-0.0323969810 -0.0219846297 -0.0926059530
-0.0768326124 -0.0219846297 -0.3958459612
-0.0158649384 -0.0121457775 -0.1313743740
0.0173409806 -0.0089265338 0.0581189278
0.0207910676 0.0014368416 0.0586906772
-0.0591405201 0.0219846297 -0.2471303348
0.0759937251 -0.0053368481 -0.1035436435
-0.0823190259 0.0081081330 -0.4446153157
-0.0564796609 -0.0219846297 -0.4159524669
0.0104433759 0.0219846297 0.0889348568
-0.0705610864 0.0219846297 -0.3809100508
0.0195771228 0.0219846297 -0.1638099942
0.0700856420 -0.0219846297 -0.0606944839
-0.0742561029 -0.0018769591 -0.3544083102
0.0483259245 -0.0095271408 -0.4490345293
0.0132581624 -0.0219846297 0.2451926902
0.0659660982 0.0002731513 -0.2508791488
-0.0785017577 0.0190003156 -0.4017032190
0.0152079709 -0.0219846297 0.1042420537
-0.0644086283 -0.0219846297 -0.2555159041
-0.0123105887 0.0219846297 0.3053674631
0.0650371294 0.0219846297 0.1326889487
-0.0705246300 0.0189293156 -0.3129316677
-0.0411606188 -0.0065192362 0.2877221875
0.0748424971 0.0219846297 -0.0293529001
0.0469988892 -0.0219846297 0.4281506736
0.0815555814 0.0124063792 0.1414203797
-0.0818031051 0.0181439292 -0.4387826524
0.0031620855 0.0219846297 -0.4955805667
-0.0181922211 0.0219846297 0.2010229656
0.0191299952 -0.0219846297 0.1778383545
-0.0628618019 0.0053284223 -0.5000000000
0.0802200146 -0.0149507430 -0.0125297495
0.0417498982 -0.0219846297 0.2519885239
0.0584723683 -0.0037395867 -0.3405026102
0.0800247393 0.0015604720 0.4473164346
-0.0370277020 -0.0219846297 -0.0728205790
0.0326221752 0.0219846297 -0.2878601627
-0.0014333356 0.0219846297 0.3688163294
0.0460657970 0.0219846297 0.0793945002
0.0804763482 0.0027565760 -0.0051477009
0.0221326660 -0.0219846297 0.1526470029
-0.0361839641 -0.0219846297 0.0780073060
0.0176741491 -0.0219846297 0.4760517367
-0.0366631593 -0.0219846297 -0.3691964803
-0.0711627503 -0.0134356913 -0.3200307735
-0.0255789450 -0.0219846297 0.1548160980
0.0759329554 -0.0219846297 0.0376673841
-0.0238311356 0.0219846297 0.1306989742
0.0698322197 -0.0004582439 -0.1994314181
0.0295136646 0.0219846297 0.2525266548
0.0515203443 -0.0147325062 -0.4160516630
0.0475486925 0.0219846297 -0.2628505236
-0.0527934894 0.0219846297 -0.1775449207
0.0691339599 -0.0219621715 -0.2090990673
-0.0265230474 -0.0028135410 -0.5000000000
0.0270349861 0.0219846297 -0.3181546630
-0.0028194542 -0.0219846297 -0.2721238245
0.0034646039 0.0219846297 -0.4263653923
-0.0005562097 -0.0219846297 0.1563605828
-0.0415710668 0.0071310129 0.0538474705
0.0765470494 -0.0121973286 0.3713431618
-0.0758110574 -0.0173647146 -0.3716990946
0.0143440932 0.0046002365 0.4424021648
0.0126171665 0.0219846297 -0.4108761667
0.0640988424 0.0219846297 -0.0314593189
0.0738289000 -0.0219846297 0.0338604848
0.0571056475 0.0219846297 -0.1527031258
0.0329933857 0.0219846297 0.2393174090
-0.0416712788 -0.0131334597 -0.5000000000
0.0156087631 0.0219846297 -0.1704481528
0.0736209361 0.0182682995 -0.1433099747
-0.0441972719 0.0219846297 -0.4207867533
0.0778985384 0.0122928173 0.2084529219
-0.0128085565 -0.0219846297 0.1470232413
0.0701142273 0.0219846297 0.1745500435
0.0658453352 0.0007079466 -0.2524200927
-0.0378319085 -0.0110163563 0.1419617317
0.0337808231 -0.0219846297 0.0777089642
0.0091745060 0.0219846297 -0.3686677355
-0.0796380224 0.0105515491 -0.4144240774
0.0675494436 -0.0219846297 -0.1133317114
0.0362130447 -0.0219846297 -0.4839874532
-0.0486920023 -0.0124276788 -0.0546347175
0.0128469143 0.0219846297 0.0743223650
0.0769005131 -0.0176874079 -0.0868817110
-0.0492758493 -0.0119924240 0.3339292014
0.0811855606 -0.0126284813 0.0182383217
0.0646963136 -0.0095864258 -0.2668746932
0.0325069453 -0.0047210495 0.4073968875
-0.0068824736 -0.0219846297 -0.4052868614
-0.0266900711 -0.0219846297 0.3827550358
-0.0388558196 -0.0219846297 -0.0434982725
0.0144595515 -0.0219846297 0.2847710512
0.0441444537 0.0055602638 -0.0344266080
0.0474940318 0.0219846297 0.2169739841
-0.0516764547 0.0032085956 -0.0936261402
0.0175666949 -0.0219846297 -0.4643923871
0.0511026314 0.0039040494 0.3206040196
0.0468452811 0.0219846297 -0.2083889004
-0.0494398702 -0.0025723154 -0.0646328707
0.0427843102 -0.0219846297 -0.2254066834
-0.0166957687 0.0020463688 0.4411992986
-0.0342505723 0.0219846297 -0.2688518495
0.0770024360 -0.0217933106 0.3719655064
-0.0847890961 0.0037541202 -0.4727222780
-0.0386020029 0.0058875979 0.1178409048
-0.0098444495 -0.0030597674 0.4441219919
-0.0862052553 0.0114487668 0.4255554065
-0.0398187352 0.0141526904 0.0884158288
0.0387544182 0.0219846297 0.1622287585
0.0748443823 -0.0209258361 -0.1233753832
-0.0413764652 0.0166733380 0.0574113777
-0.0275675001 0.0219846297 -0.2994835974
-0.0356128895 0.0219846297 0.4439664947
-0.0118541821 -0.0219846297 -0.1909072108
-0.0150164604 -0.0219846297 -0.1679334952
-0.0088913676 -0.0219846297 0.2721959091
-0.0325580609 0.0219846297 0.0602190100
0.0504433857 -0.0115781550 0.3228899683
0.0432512831 0.0133558442 -0.4996970932
0.0185507564 0.0219846297 -0.3727386390
0.0821795731 0.0120076091 0.1027227613
-0.0114384152 -0.0069726589 -0.0447873553
0.0572453177 -0.0219846297 -0.3457677852
-0.0594504501 -0.0219846297 -0.3856886602
-0.0611401686 -0.0219846297 -0.2092305315
0.0528227906 -0.0219846297 0.2839880728
-0.0640967952 0.0146763929 -0.2409040315
-0.0082682415 -0.0146349585 -0.0040904305
0.0445229330 -0.0144177226 -0.0292887138
-0.0128222166 0.0219846297 -0.1630938153
0.0561907905 -0.0132680308 -0.3659505371
-0.0613272251 0.0219846297 -0.3549531525
0.0379142595 0.0009434481 -0.1076096187
-0.0060443177 0.0079044226 0.0201997603
-0.0233385944 0.0020718704 0.3896768809
0.0254356506 0.0219846297 0.1623396200
0.0737816846 0.0219846297 0.1522024304
0.0024724039 -0.0116865682 0.4998769764
0.0503769194 -0.0219846297 0.2075554349
-0.0137544410 0.0162326000 0.4426815258
-0.0391890341 0.0025597989 0.1028208831
0.0816558368 0.0158437246 0.1376001791
-0.0174029020 0.0219846297 -0.2962307008
0.0492772668 -0.0219846297 -0.3794348515
0.0602968767 0.0219846297 0.4695375085
0.0380916099 -0.0219846297 0.4023389813
0.0360974727 0.0219846297 0.4795435769
0.0134084456 -0.0219846297 0.3444519589
0.0680676368 0.0091673614 -0.2235109177
0.0489716930 -0.0197644860 0.0448058244
0.0714638831 -0.0219846297 -0.0421193547
0.0669015835 0.0104471397 -0.2388611568
-0.0374713048 0.0219846297 -0.2709876763
-0.0746397392 0.0132844732 -0.3586723186
0.0548044442 -0.0219846297 0.2717045641
0.0610449490 -0.0219846297 -0.1594015595
-0.0154965588 0.0219846297 0.1774531999
0.0624241048 -0.0219846297 0.4208701133
-0.0558594713 -0.0219846297 0.4320651694
-0.0467324455 0.0010633138 0.4864104493
-0.0359261734 -0.0219846297 0.1446947952
-0.0151920628 -0.0219846297 0.0747663649
-0.0157130252 -0.0219846297 -0.3624332518
0.0026850261 -0.0203768970 0.4999053108
0.0262290156 0.0219846297 0.0753423993
-0.0202819662 0.0203652897 0.3872600271
0.0754993290 0.0179847313 -0.1122242271
-0.0370849565 -0.0117406801 0.1955960068
0.0275564148 -0.0165644679 -0.1456637314
0.0121894993 0.0219846297 0.2960609911
0.0715622496 0.0219846297 0.0497130472
0.0790930350 -0.0044095380 0.1933936154
-0.0382480086 0.0219846297 0.3377591728
0.0733440658 -0.0219846297 0.2337925585
-0.0157797007 0.0219846297 -0.4598222370
0.0328475264 -0.0219846297 -0.2043647009
-0.0543764492 0.0162311162 -0.1272501964
0.0421403126 -0.0069222767 -0.0600802813
0.0020111282 -0.0219846297 -0.4771436468
-0.0063468438 -0.0156847460 0.0170367977
0.0094776755 0.0219846297 0.2775287223
-0.0546445537 0.0219846297 -0.3414566142
-0.0115809205 0.0219846297 0.4764045054
0.0316697273 0.0219846297 0.2611599424
-0.0434121756 0.0181384672 0.4883387302
-0.0371879922 0.0180328221 0.2112455418
0.0052842548 -0.0219846297 0.3084259500
-0.0545624643 -0.0219846297 -0.4190336620
-0.0412353556 0.0126100254 0.0600185730
-0.0141157765 0.0161665522 -0.0894661742
0.0737567480 -0.0219846297 -0.0582241074
0.0762792293 0.0036349348 0.2248515794
0.0198453729 0.0136760811 0.4387907643
0.0314518870 0.0219846297 0.3562001929
0.0005888268 -0.0219846297 0.4525736669
0.0658391271 -0.0219846297 0.4616317002
-0.0399500231 0.0219846297 -0.1631845343
-0.0082240454 -0.0219846297 0.1711680581
0.0821183329 0.0110291620 0.0689942680
-0.0172289050 -0.0219846297 0.0657488695
0.0017726921 0.0196626766 -0.1494311543
0.0260987375 0.0219846297 -0.3660117462
-0.0432258202 0.0219846297 -0.0547396255
-0.0423891226 -0.0219846297 -0.3558416764
-0.0532118418 0.0219846297 -0.2077601460
-0.0430262894 0.0219846297 -0.1683141088
-0.0127538307 0.0028922330 -0.0649766081
0.0810687041 0.0170481546 0.1562872932
-0.0263682626 0.0219846297 0.4567151994
-0.0371193875 -0.0139415242 0.1827152795
0.0192062004 0.0219846297 -0.1503755199
0.0484324598 0.0219846297 0.3324733646
0.0499405797 0.0219846297 0.2090069814
-0.0530178566 -0.0219846297 -0.4785251481
0.0719807568 0.0089782900 0.3637410475
0.0428500465 -0.0219846297 0.2407417696
0.0597756524 -0.0184211794 -0.3256388376
-0.0842338332 -0.0074816157 -0.4663751235
-0.0211111219 0.0219846297 -0.4183435255
-0.0074440511 -0.0219846297 0.3712177329
-0.0834661516 0.0218348688 -0.5000000000
0.0317620424 -0.0017534833 -0.1420453462
0.0189227528 0.0219846297 -0.1756844109
-0.0771236037 -0.0190252971 -0.3863185101
-0.0398485108 -0.0036205687 0.2736768309
0.0191433633 -0.0219846297 0.2308495342
0.0732468263 -0.0118551264 0.3657515382
-0.0511515921 0.0219846297 -0.3267841410
-0.0159703984 -0.0114239570 -0.1346243616
-0.0073135920 -0.0012137148 0.4996346574
-0.0616771444 -0.0219846297 -0.4602666355
0.0526546532 -0.0219846297 -0.1331735975
0.0542626562 0.0219846297 -0.3104472091
0.0164705395 0.0008037712 0.4983297715
0.0386895259 -0.0219846297 0.3257386705
0.0330139459 0.0160728310 -0.1409792195
0.0686387562 0.0219846297 0.4551707322
0.0446280217 0.0219846297 0.3244270743
0.0186049348 -0.0175901241 0.0584489954
-0.0467574479 0.0219846297 0.4856324638
0.0353481175 -0.0219846297 0.4582732450
-0.0372458041 0.0031342781 -0.5000000000
0.0703450495 0.0219846297 0.2101678654
-0.0036822206 -0.0219846297 0.2057812000
0.0822143307 -0.0157604999 0.0869115281
-0.0448560817 0.0219846297 -0.2344221044
0.0035371221 -0.0219846297 -0.3271517381
0.0107515175 -0.0219846297 0.1602231367
-0.0010381430 -0.0219846297 0.4740488922
0.0804296923 -0.0219846297 0.1701016125
-0.0589736772 -0.0089464115 0.4769986827
0.0047701840 -0.0219846297 0.1940256361
0.0491905555 0.0100436754 -0.4401985198
0.0083264662 -0.0212274229 -0.1509835470
0.0484543418 -0.0128320135 -0.4477265440
-0.0560311329 0.0122158652 -0.1472790420
-0.0249321582 -0.0219846297 -0.1457299044
0.0277330354 -0.0219846297 0.0868749295
-0.0122186740 0.0219846297 -0.3371710128
0.0818744437 0.0002763197 0.0501509344
0.0367412544 -0.0219846297 0.3709392718
-0.0370960427 0.0209415506 0.1985246527
-0.0021671578 0.0170063260 0.4999472910
0.0677183869 0.0095726651 -0.2281385897
0.0758624796 -0.0219846297 -0.0864556651
0.0243344247 -0.0219846297 -0.3619371013
0.0818857700 -0.0053893114 0.1271392026
-0.0148479478 0.0161839053 -0.1049626133
0.0528846615 -0.0219846297 0.3605356081
-0.0592780695 -0.0030181043 -0.1856323595
-0.0541212830 0.0219846297 -0.3066990966
-0.0166984995 0.0219846297 -0.2500802870
0.0815249997 0.0061071312 0.0320237164
0.0418332005 -0.0219846297 0.2570661316
0.0622273277 0.0219846297 0.0622594288
0.0537002076 0.0219846297 0.4710022589
-0.0515136292 0.0219846297 -0.2589342725
0.0071497393 -0.0219846297 -0.4639843248
0.0467126032 0.0219846297 -0.0937831920
-0.0523299455 -0.0219846297 -0.1084123507
-0.0067201329 0.0174835166 0.0130950683
0.0474987958 0.0219846297 -0.0287056455
0.0565051964 -0.0068206606 -0.3624816649
0.0812723746 0.0031914190 0.0215797899
0.0361268171 -0.0219846297 0.1110231567
-0.0216717482 -0.0219846297 -0.4449844418
-0.0320476394 0.0074345508 0.4059976598
0.0799896200 0.0160264730 0.1792626770
-0.0264319184 0.0219846297 -0.4292566120
0.0142574061 0.0219846297 0.1136177570
0.0630157258 -0.0219846297 -0.2059060174
0.0029105081 -0.0219846297 -0.2974264111
0.0194004898 -0.0051957232 0.3863206317
-0.0430571488 -0.0219846297 -0.3292477106
0.0088214635 -0.0219846297 0.3116082728
-0.0024894054 0.0094635646 0.4456815893
0.0790254057 0.0032485814 -0.0427326435
-0.0399930920 -0.0219846297 -0.3919343413
-0.0739036700 -0.0219846297 0.4441518888
0.0102264183 -0.0219846297 -0.4442239006
0.0517570450 -0.0219846297 0.2788531819
-0.0063318915 0.0219846297 -0.1748418544
0.0662231472 0.0122950083 0.2820671776
-0.0395613163 0.0219846297 0.2838469931
0.0682858723 0.0164190658 0.4669619908
0.0734144088 0.0130569575 -0.1465808821
0.0313975317 0.0219846297 -0.3120983927
0.0433630340 -0.0164331567 -0.0447348732
0.0798543543 -0.0219846297 0.1637988160
-0.0357775946 0.0219846297 -0.2801085919
-0.0457783083 0.0111831966 0.3190751265
0.0545100097 -0.0139661459 0.3448502565
0.0685742936 -0.0219846297 0.0792193314
0.0190128869 0.0219846297 0.3340416780
-0.0135646769 0.0176456361 -0.0790198306
0.0081396384 0.0219846297 0.1193580822
0.0282245855 0.0219846297 0.0952474215
0.0508170078 0.0219846297 -0.3989654223
-0.0437096982 -0.0219846297 -0.4767738084
-0.0131815952 0.0094007665 -0.0722159806
-0.0250520029 0.0219846297 -0.3598043047
0.0564175220 -0.0219846297 -0.1002568637
-0.0281075741 -0.0219846297 0.1591748790
-0.0200732197 -0.0219846297 0.0742267695
0.0267147993 -0.0219846297 0.2139346654
-0.0805471494 0.0219846297 0.4073946154
-0.0785576215 -0.0192725669 -0.4023282225
0.0394989105 0.0219846297 -0.4023824174
0.0557371745 0.0219846297 -0.3485913119
0.0317084896 -0.0219846297 -0.4464709302
-0.0659401487 0.0219846297 -0.3509320800
0.0815697300 -0.0105401116 0.1409277426
0.0540804750 0.0219846297 0.4288085787
-0.0372123034 0.0041521046 0.2129041115
0.0173286080 -0.0219846297 0.1826010799
0.0485401046 -0.0016139743 -0.4468546412
-0.0410019987 0.0219846297 -0.0472566470
0.0275074417 -0.0219846297 -0.3745621779
-0.0549479224 0.0029269623 -0.1342067003
0.0687899102 0.0219846297 0.4461114408
-0.0511364650 -0.0098057731 -0.0867325385
-0.0379345438 0.0219846297 0.3674366346
0.0091457814 0.0219846297 0.1112008666
0.0622980363 0.0219846297 0.0330676090
-0.0390886594 -0.0219846297 -0.4096821713
-0.0506838133 -0.0219846297 -0.1868288119
0.0187917381 -0.0219846297 0.4453137634
0.0869546600 -0.0040865497 0.4186648194
0.0770337254 -0.0219846297 0.4231524607
-0.0462709035 -0.0219846297 -0.2442600054
0.0660285333 -0.0219846297 0.2354240669
-0.0639161402 0.0109442173 -0.2388561498
0.0731753032 0.0180601321 -0.1503203406
-0.0275610484 0.0219846297 0.1758057960
-0.0372299591 -0.0219846297 -0.4202344063
-0.0494449418 -0.0219846297 -0.4181512055
0.0804362879 0.0214360949 0.1707209195
-0.0408609711 0.0209478304 0.0671609665
0.0650078711 -0.0219846297 0.2263726876
0.0107818102 -0.0219846297 -0.2680316155
0.0813064115 -0.0216771264 0.1494463639
-0.0201625200 -0.0219846297 0.0921895357
0.0413070711 0.0219846297 0.1415679339
-0.0758537640 -0.0219846297 -0.4316658422
-0.0188372071 -0.0219846297 0.2175416969
0.0568625851 0.0216575754 -0.3585297274
0.0725680355 0.0102573556 -0.1596642091
-0.0037655730 0.0219846297 0.2161578887
-0.0358948229 -0.0219846297 -0.4794626257
0.0656224013 0.0077336794 -0.2552561507
0.0504457425 -0.0219846297 -0.3304239377
-0.0694341024 0.0219846297 -0.4804434714
0.0023944756 0.0219846297 -0.1937079614
0.0813970397 -0.0198396424 0.1467726861
0.0309417923 -0.0213854745 0.4018597499
0.0540739227 0.0219846297 0.3837157779
-0.0149420291 0.0219846297 -0.4153226824
0.0153737256 0.0219846297 -0.2454291652
-0.0394375328 0.0219846297 0.3737578000
0.0011082145 -0.0219846297 -0.1666901978
0.0484885049 0.0219846297 0.3163771460
0.0214452822 -0.0210077110 0.4972943975
-0.0265391272 0.0219846297 0.2263875032
-0.0778301722 0.0023058820 -0.3942007540
0.0690620074 -0.0029585491 -0.2100734867
-0.0238246268 0.0219846297 0.4765234064
-0.0752357663 -0.0101961102 0.3690273061
0.0250305768 -0.0001354134 0.3918199362
0.0237151844 -0.0219846297 0.4682326353
0.0555092683 0.0219846297 -0.1538928629
0.0552875589 0.0219846297 0.0596451470
-0.0238286421 -0.0114532056 -0.5000000000
-0.0489882247 0.0219846297 -0.2371057840
0.0132062041 -0.0219846297 -0.3703790712
-0.0537614158 -0.0219846297 -0.3311715909
0.0531467046 -0.0219846297 0.2503283082
0.0186511630 -0.0219846297 -0.3019609597
0.0546499035 -0.0219846297 0.0221177873
-0.0633724350 0.0022222091 -0.2326865750
-0.0260053243 -0.0219846297 0.2183992904
0.0475759567 0.0097562082 0.0170275126
0.0227825641 0.0219846297 -0.1538642453
0.0270535299 -0.0219846297 0.3411562107
-0.0162713958 0.0219846297 0.4607236155
-0.0178759806 -0.0219846297 -0.1733803846
-0.0529617977 -0.0102767346 -0.1097935737
-0.0404744787 -0.0109088437 0.0747284578
0.0577440817 0.0219846297 0.3852066484
0.0700805473 -0.0006850660 0.2655881873
-0.0781770376 0.0072244737 -0.3980741249
0.0774422033 0.0091889439 -0.0763914091
0.0074953052 0.0219846297 0.3072297192
-0.0784513960 -0.0159150876 -0.4011396939
-0.0417129079 0.0085032594 0.0512899887
-0.0033643427 -0.0099069062 0.0448819937
-0.0489727311 0.0219846297 -0.1978494437
0.0737785062 0.0179684373 0.3665437132
-0.0414259703 -0.0219846297 0.0150110279
0.0486708606 -0.0219846297 -0.4398178133
-0.0085074023 0.0219846297 0.0480939283
0.0381567733 0.0050843633 0.0547900145
0.0398039116 0.0219846297 0.2246790287
-0.0561328744 -0.0164166127 -0.1485016539
-0.0401700626 -0.0045520433 0.2776154290
-0.0197936068 0.0219846297 0.3428212510
0.0153199846 0.0208566392 0.4417098514
-0.0124158666 -0.0154117440 -0.5000000000
-0.0338535772 0.0219846297 0.0412808375
-0.0489536939 0.0219846297 -0.2457584720
0.0528859793 -0.0219846297 0.1532116652
-0.0121183558 0.0219846297 -0.2237094720
-0.0404188294 -0.0190654422 0.0758702335
-0.0329427985 0.0219846297 0.0296434206
0.0214825754 -0.0219846297 0.1547643635
-0.0065522561 0.0219846297 -0.3953083841
-0.0242999163 0.0219846297 0.4861982462
0.0405029700 -0.0219846297 -0.3666837935
-0.0220063583 0.0219846297 0.1874846936
0.0079811363 -0.0033367760 -0.5000000000
-0.0437159756 -0.0219846297 -0.4199583961
0.0043478062 0.0219846297 0.4622371657
-0.0357178267 -0.0219846297 -0.4112165481
-0.0042837285 -0.0119985789 -0.5000000000
0.0513977579 0.0219846297 -0.3848967152
-0.0642700429 0.0194971107 -0.2428624754
0.0614235450 0.0219846297 0.2089703336
0.0789699673 0.0219846297 0.3924846837
0.0385307237 0.0219846297 -0.2566775612
0.0219236950 -0.0219846297 0.4688792244
0.0027128218 0.0219846297 -0.3341911644
0.0771572004 -0.0038779070 -0.0819633169
-0.0044022170 -0.0219846297 -0.4042068189
-0.0499662474 -0.0024797435 -0.0715566044
-0.0432815551 0.0219846297 -0.3306803815
0.0203580173 -0.0219846297 -0.1737473223
-0.0404859254 -0.0219846297 -0.3319573486
-0.0332860897 -0.0219846297 0.1122203457
-0.0202092442 0.0219846297 0.1599748881
0.0081757889 -0.0219846297 -0.3245639920
0.0401675254 0.0219846297 -0.4300950285
-0.0433186457 -0.0205517497 0.0239496004
-0.0586081846 0.0219846297 -0.3391856390
-0.0863403378 0.0067687290 -0.4905591233
0.0587898923 0.0219846297 0.3504745053
-0.0383434834 0.0219846297 0.3459655846
-0.0844346815 -0.0070417512 -0.4686685880
-0.0197909390 0.0219846297 0.3186878073
0.0703704341 -0.0219846297 0.0205309094
0.0572314352 -0.0219846297 0.1513799718
-0.0011093905 -0.0009158984 0.0476642935
0.0422377362 0.0219846297 0.2951824524
-0.0015446384 -0.0219846297 -0.3410007032
-0.0078174916 -0.0219846297 -0.3108719878
0.0233177256 -0.0219846297 -0.3681168545
0.0808802444 0.0059888005 0.0075463379
0.0011141416 -0.0219846297 -0.4261049585
0.0691319854 0.0217883941 0.4659615394
0.0278679721 0.0219846297 0.3394329862
0.0730450406 0.0145972497 -0.1523453078
0.0044572638 0.0219846297 -0.4566997109
-0.0537598073 -0.0219846297 0.4769044358
0.0281143025 -0.0219846297 -0.3322889270
0.0421654262 -0.0198523584 -0.0597751675
0.0434596770 0.0219846297 0.0695728873
-0.0377766317 0.0215656419 0.1441177838
-0.0111212177 -0.0081662580 -0.1416476481
0.0483530721 -0.0219846297 -0.0333641033
-0.0588785548 0.0219846297 -0.3640903653
-0.0717918003 0.0219846297 -0.4395397784
-0.0219971804 0.0219846297 -0.0448836314
-0.0015682782 -0.0219846297 -0.1667788905
-0.0150986942 -0.0147856433 -0.1108206045
0.0389029060 0.0117587681 -0.0971304035
-0.0034944163 0.0110268267 0.4455015747
0.0376097353 -0.0219846297 -0.4178860075
0.0069310962 0.0219846297 -0.4320630391
0.0767903862 0.0079051102 0.4540664314
0.0613141202 0.0219846297 0.2672135803
-0.0423251581 0.0219846297 -0.1730525037
-0.0125546218 0.0219846297 0.2826162363
-0.0375338331 -0.0114257976 0.1542854121
-0.0231804725 -0.0219846297 -0.4744771495
0.0744342257 -0.0155080529 -0.1302015042
-0.0157815090 0.0034158879 -0.1289370922
-0.0431679503 0.0219846297 0.4635982010
0.0751015173 0.0096975089 0.2346304259
-0.0342459511 0.0219846297 0.1697499536
0.0295314988 0.0219846297 -0.1795619495
-0.0070474965 -0.0219846297 0.4690986291
-0.0600788874 -0.0219846297 0.4704922630
-0.0399943057 0.0176498074 0.2755479528
-0.0080613069 -0.0113376966 -0.1444453042
0.0780726163 0.0199459277 0.2065288754
-0.0523507636 -0.0219846297 -0.1334673503
0.0492808517 0.0074019287 0.3310663045
-0.0533581959 0.0219846297 -0.4822417389
-0.0800547838 0.0219846297 -0.4894303623
0.0367299719 0.0219846297 0.4146933986
-0.0404142183 0.0170020527 0.0759490423
0.0261099760 -0.0219846297 -0.4071020184
0.0685117097 -0.0124158970 -0.2175474303
