-0.2338412120 -0.0638538467 -0.1660232395
-0.4259096890 0.4236068540 -0.0669566806
0.4097602325 0.2838545814 0.1116567642
-0.4259096890 -0.2541893997 -0.0385680809
-0.0974463584 -0.1885002661 -0.1747290826
-0.2586182766 0.0497100705 0.1737261129
0.2105833373 0.1784669560 0.0235579465
0.4047017359 -0.0460372304 0.2938386394
0.4259096890 -0.0511358511 -0.0904782622
-0.4259096890 -0.0941677746 -0.1669481524
0.3072979869 -0.1187594125 0.1920250086
-0.0951884923 -0.3231564536 0.0578889931
0.3799158339 0.0294593433 -0.2513361547
-0.1766086784 0.3665209368 0.0918120320
-0.3095526907 -0.4934182820 -0.0206682635
-0.0831224590 0.2915381587 -0.0758238024
-0.2758903881 -0.4196344098 0.0955446343
0.4259096890 0.2061044423 0.1857860541
-0.2029007199 -0.2588652389 0.1948098959
-0.3115128610 0.3770619596 0.1360852974
-0.1198808323 -0.1296032102 -0.1699141599
0.4259096890 0.0185891575 0.2705079909
-0.1051100253 -0.2579019692 -0.1452242666
-0.1436221133 0.3300352298 -0.0976513644
-0.4259096890 0.3854263444 -0.1245286985
0.2276164706 0.0865123753 0.1953380335
0.1220551660 -0.1922147741 0.0050432723
0.0321888799 0.1608099532 -0.1806527971
0.0474325723 0.2169517839 -0.1634172013
-0.4026572075 -0.2333096973 -0.2355371386
-0.4259096890 0.1807185919 0.2080441074
-0.4259096890 -0.4069473768 -0.0794395776
0.4259096890 -0.1777586787 0.2005144653
-0.0748842893 -0.1245857349 0.1773281555
-0.4259096890 -0.0750522628 -0.1189713849
0.4259096890 -0.0135852366 -0.3168878342
0.2151013462 -0.0544263407 0.1526428952
0.4259096890 0.2243621081 -0.1611710093
-0.4259096890 -0.1255650093 -0.1936448503
-0.2645692952 0.3219412117 -0.1604062540
-0.4259096890 -0.2972596924 -0.1103672866
-0.4259096890 0.3276934228 -0.1067116869
-0.4259096890 -0.3061638312 0.2116545600
0.2024677514 -0.1785973442 0.1726761681
0.4259096890 0.0820774558 0.0616823214
0.4094723599 -0.0060386975 -0.3029730386
0.3484545163 -0.2466372619 0.0716565472
0.4259096890 -0.2457921564 0.1698096203
-0.1073476049 0.3053772762 0.0907872646
-0.4259096890 0.0864502350 -0.0167261044
0.0299831315 0.0455566966 0.1802464577
-0.4259096890 0.4528286526 -0.0033453415
0.1675599612 0.1000443186 0.1897086139
-0.4259096890 -0.2483049495 0.2020079599
0.3663701392 0.1929989124 -0.0162815357
-0.4259096890 -0.3090868775 0.1905045709
-0.2384948906 0.4668855294 -0.0381757485
-0.4259096890 0.1125009773 -0.2036040553
-0.4259096890 -0.2409451650 -0.2373631455
-0.4069576363 -0.1744166156 -0.2503993233
0.4259096890 0.0950708062 0.1820305197
-0.4079778502 -0.4469301159 0.1170340982
0.4259096890 0.0710963138 -0.0129088729
0.3677703857 -0.2195332040 -0.1219735670
-0.2921050275 -0.3561437466 0.1476275594
-0.1477640173 -0.1237470761 0.1689979865
-0.4259096890 -0.0960629243 -0.0819551850
-0.1569957776 -0.2371538151 0.1929649950
0.4259096890 -0.0978382280 -0.0005126052
-0.1894370872 0.1969450033 -0.1865941066
-0.0452271266 0.0964083932 -0.1784708440
0.4259096890 -0.1838199442 -0.0929627329
0.3818575168 -0.0783372724 -0.2969487771
-0.3666548481 0.4962967619 -0.0213579491
0.3446168171 -0.2810739004 0.1340495057
0.2473587329 0.0171607112 -0.1466228395
0.3318125368 -0.0234147737 -0.1928948479
-0.2890459170 -0.3356515105 -0.1559301656
0.0521006623 -0.1612246102 0.1788279437
0.4259096890 -0.1306487500 -0.1581474173
-0.3769299471 -0.4814888613 -0.0635383768
-0.4259096890 -0.1481062348 -0.2549147721
0.1801444802 -0.0736985626 0.1590862706
0.4259096890 -0.3160535723 -0.1027268698
0.4259096890 -0.0370787841 0.2834142011
-0.1873109741 -0.2567504740 0.1920699533
0.0431857245 -0.2008044764 0.0299819988
-0.4259096890 -0.2407590237 -0.1036934195
0.4059292800 -0.2795042028 -0.0903221469
-0.0944679428 0.3028362453 0.0812832894
-0.4259096890 0.1023663213 0.0412639348
-0.4259096890 0.2431635099 0.2386975812
-0.1690920755 -0.2901586559 -0.1411023923
0.4259096890 -0.1291679844 -0.1039004241
-0.0584048932 -0.2366404489 -0.1704403450
-0.3730717428 0.0752471065 0.2401368474
0.3970225328 -0.0685049814 -0.3047356487
0.3279824814 -0.0232350043 0.1836575879
0.3808345161 -0.2229012106 -0.1978505777
-0.4011681176 -0.3911068847 0.1637368119
0.1821455475 -0.1854328058 -0.0136158039
0.1462001440 -0.2058572285 0.1688317409
0.0317465194 0.2074947744 -0.1794016818
-0.2145673908 0.3923961615 0.0924688213
-0.3265369511 0.3443436359 0.1651590767
0.4259096890 -0.3060798543 0.0184356527
0.1387210377 -0.0961848857 -0.1835880339
-0.1444637177 -0.0373353125 -0.1555516473
0.4000787027 -0.2911186221 0.0561760614
0.1120109048 0.1940204061 0.0407751445
0.4259096890 -0.1887222779 0.1770981863
-0.4259096890 0.3274313059 0.1240189595
-0.4259096890 0.4090366366 -0.0358299821
-0.4259096890 0.4012013465 0.1425437427
-0.0964315581 0.2469570663 0.1730756485
0.3257127174 0.0243563763 -0.1820917278
-0.2205267387 -0.3880534819 -0.0980553719
-0.4259096890 -0.4064450484 -0.0043785905
-0.2426959330 -0.2986301557 -0.1703545650
-0.2466050932 0.0320286675 0.1670472843
-0.2680711701 0.2914562264 -0.1875770435
-0.2519990978 0.0961457454 -0.1739622850
0.3103367072 -0.1657113503 -0.2405915491
-0.1331313681 -0.2610151023 0.1551340150
-0.4259096890 0.0982146040 0.2542589424
0.3497752299 -0.1751856266 0.0169448860
-0.3009940413 -0.2615560299 -0.1948285113
-0.2072999184 0.2008556463 0.1788923357
-0.1930090559 -0.2937250289 -0.1495309926
0.1585247552 0.0556984701 -0.1592508503
-0.3917735362 -0.1006163593 -0.2507757372
0.4259096890 0.2122961387 0.2149900931
0.0702810357 0.1800761273 0.1934673742
0.2413885416 -0.2414763898 0.1156641504
-0.1738737007 0.1210758319 0.1660653230
-0.4259096890 0.3458127303 0.2001273204
-0.0298360554 0.2282870172 0.1513687468
0.1076056555 0.0080167770 -0.1653583010
-0.0489212761 0.2296396623 -0.1486469282
0.0848517746 0.2105089764 -0.1128566072
-0.2033955572 -0.4601156470 0.0279866131
-0.3487016229 0.0939490818 -0.2230753852
0.0463156198 0.1463599563 -0.1802159638
0.0981465243 -0.1114983144 0.1741480104
0.2643520999 -0.1810715149 0.0507083856
-0.0943139029 0.0474976296 -0.1666562687
0.0069303859 -0.1541925038 0.1812772330
-0.4259096890 0.1086042433 -0.0017468217
-0.2515440373 -0.3137871181 -0.1577094516
0.4259096890 -0.2645276655 -0.0902448020
0.0885049574 -0.1938893378 -0.0160367668
-0.3092495759 -0.4418498247 -0.0909192538
0.4259096890 0.0712595305 -0.2980421573
-0.3228846508 0.0804153035 -0.2074537130
-0.1305519645 -0.3370540964 -0.0855117762
-0.4259096890 -0.0021459877 -0.2703518258
-0.4259096890 -0.2880344974 0.0385908953
-0.0618314040 -0.0556744749 0.1745418322
-0.3843181764 -0.4301458268 -0.1247591544
0.0447503774 0.0363913816 -0.1780356485
-0.0543585442 -0.2019658181 0.1855748391
0.4259096890 0.0716368925 -0.1567509192
-0.3821941287 0.4145106555 -0.1372189406
0.4259096890 0.0729949188 0.1827636385
0.4259096890 -0.2259089380 -0.1311788596
-0.3210523862 0.1345743580 0.2093204478
-0.3386305017 0.0424492749 -0.2172072919
0.0307538650 0.0792844215 0.1812490951
0.0630791635 0.2028347241 0.1444673188
-0.4259096890 0.1017097475 0.0555260225
-0.2762675784 0.3623406221 -0.1362777123
0.1914495546 -0.0258211659 0.1499627197
-0.0769762402 0.1679736505 -0.1817509934
0.3057928998 0.2663437496 -0.1496213448
0.3750996982 0.2252104432 0.1703066820
-0.4259096890 -0.2908916298 0.1403138996
-0.4259096890 -0.3471660043 0.0371285752
0.3431369438 0.0949254556 -0.2171769238
-0.4259096890 0.2908992938 -0.1003023781
-0.4259096890 0.0740089784 -0.1232786888
-0.4259096890 -0.1507039748 0.1260221297
0.1425427419 -0.2298002496 0.1587106652
0.4259096890 0.0008622708 0.0597673865
0.4259096890 -0.0159947714 0.1679671768
-0.4198951434 0.4637966993 0.1017006381
0.2708596106 0.1373426640 -0.1840748072
0.4259096890 -0.1649685076 -0.2408221796
-0.0393314059 -0.0740549027 0.1787460762
0.1193352995 -0.2177229898 0.1674674005
-0.4259096890 -0.0742498627 -0.2120593805
-0.4240792290 -0.0635909651 0.2743321838
0.3269059717 0.0148732547 0.1834284434
0.4259096890 0.0523070787 -0.1200778432
-0.4259096890 0.4749663860 -0.0202365330
0.4259096890 -0.2340834690 -0.1025974504
0.4259096890 0.1142605415 -0.1723203958
0.4259096890 0.1246037905 0.2534132950
0.4038891265 -0.2701746986 -0.1321977638
0.0720405339 -0.2012958690 -0.1147890139
0.2272239074 0.1351352403 0.2363995885
-0.1596734232 0.2395700277 -0.1904995655
-0.0766880428 -0.1420223280 0.1794005593
-0.4259096890 -0.4504737972 0.0412868307
-0.2868806729 0.1779786012 0.1957532218
-0.3500382244 -0.3916569900 -0.1412543471
-0.3346404070 -0.3076174222 -0.1916063201
-0.2559041532 -0.2361895363 0.1983085444
-0.3880732994 -0.2025477455 0.2356258795
-0.3462920568 -0.4927721201 -0.0333555301
-0.2535939738 0.1172152797 0.1798080021
-0.4259096890 0.0879019229 0.2704247660
-0.0518254912 0.1105236637 -0.1782945442
-0.4259096890 0.4595093459 0.0177241910
0.2346626311 0.1558655438 -0.1794124029
-0.1174934786 -0.3969924072 -0.0033001408
0.3947991467 -0.0716389770 -0.3039937748
-0.3139919973 -0.4502094390 0.0811964478
0.4259096890 -0.2458764961 0.1156509858
0.4185970951 0.0045067484 -0.3202441305
-0.4259096890 -0.0438479077 0.1085788122
-0.4259096890 -0.0898983696 0.2408712107
-0.4259096890 0.3042709074 -0.0681734039
-0.1474672373 -0.2891161605 0.1343973276
-0.1559123862 -0.2691612278 -0.1653473532
-0.2176634131 -0.2716388687 0.1869925681
0.3461777238 -0.0161744767 -0.2045559456
-0.0440354328 -0.1394902922 0.1809230274
0.2056191701 0.0932136970 0.1940644205
0.3069577858 0.1675501715 -0.2005802748
-0.4259096890 0.4615669075 0.0208734843
0.2554703957 0.2185203876 -0.0994575742
0.1506993639 -0.1446746948 -0.2092099724
0.4259096890 -0.1483347538 0.0365981941
0.2891751001 0.1585324060 0.0323203855
-0.4019160080 -0.1054818333 0.2562211310
0.4259096890 0.0646278268 -0.0447173876
-0.4259096890 0.3121967434 -0.0665058055
-0.0479214042 -0.2052885654 0.1853796836
0.3855309860 0.1098880817 0.3025395137
-0.4259096890 0.2686673603 0.1148885176
-0.4259096890 0.0578392657 -0.0016693982
-0.0660043884 -0.2555305546 -0.1104594885
0.1648899547 -0.0156835287 -0.1542177273
0.3933654389 -0.2548672836 -0.0929548784
0.1366810003 0.0718971211 -0.1651780529
0.3478583172 0.2471860218 -0.0862229163
-0.4259096890 0.3275787103 -0.0419631406
0.4259096890 -0.1277068958 -0.1028089106
0.3706598298 -0.0419642751 0.2383469987
-0.4259096890 -0.1028023749 0.1776156822
-0.3648384162 -0.0696203296 0.2340841969
-0.4259096890 -0.0799436246 -0.0728396939
0.0987126957 0.1290240411 0.1901514470
-0.2616154902 0.3606364696 -0.1319482970
-0.4259096890 -0.1596901452 0.2137838162
0.1837773557 -0.1848900945 0.1718333730
0.2380633202 -0.1240050252 -0.2362751000
0.4259096890 -0.0758248438 -0.3206149185
-0.2036382931 -0.4484349885 -0.0488346280
0.4259096890 -0.1371008317 0.1461134854
0.4126928672 0.2963475456 0.0379256313
-0.4259096890 0.1355543985 0.1573896230
0.3883190456 0.1322302382 -0.2638630318
-0.4259096890 0.2436146999 0.0920270126
-0.4179214760 -0.3983792285 0.1648297589
0.1170313500 0.1948544432 -0.1761626953
0.4259096890 0.0522086604 -0.2934061214
0.3455538196 -0.0307921710 0.2033212715
0.4259096890 -0.0506251529 -0.3084040117
-0.2860807185 0.3343831167 -0.1596909633
0.1433799834 -0.1933150008 -0.0520555811
-0.4259096890 0.0921484210 -0.0347124774
-0.1941175609 0.2809242919 -0.1641393368
-0.2832152446 0.2859666527 0.1860802345
0.4259096890 -0.2700349306 0.1076891203
0.1895109541 -0.1190690868 -0.2095991816
-0.4259096890 0.4690861882 -0.0834804020
0.4259096890 -0.0484543138 -0.1306391256
-0.4259096890 -0.4027827893 0.0162367484
0.3551290758 -0.2724876969 0.1522506919
0.4259096890 0.0078162596 0.1837926480
-0.4259096890 -0.3929085693 -0.1445377463
0.3286647456 -0.0099332960 -0.1833554053
0.4259096890 -0.0081689732 -0.3180328416
-0.1520693100 0.4323049507 -0.0172510908
-0.4259096890 -0.3562997889 -0.1820104821
-0.1288806235 -0.2522119452 -0.1729539540
0.1956654537 -0.1856275570 -0.0590009960
0.4259096890 0.1171974709 0.0447560896
0.1110597012 -0.0753147016 0.1691460338
0.4259096890 -0.1738505274 0.2811815785
-0.0329020374 -0.2213000610 0.1815314226
-0.2226681375 0.3728995729 -0.1085491242
-0.0740455808 0.0813015379 0.1731218081
0.4259096890 0.2870462595 0.0871969920
0.2498555177 -0.1717524694 -0.0609065688
0.3149935438 0.1711980905 0.0843467077
-0.4048588239 0.1858516708 0.2471344505
-0.2947481044 -0.3241458457 0.1720650795
0.4259096890 -0.0789664851 -0.0166020541
0.2853550701 -0.1306899423 -0.2625045300
0.2508925693 0.1656913127 -0.0105883890
-0.4259096890 -0.1459909729 0.1241733906
-0.1978656177 -0.4092446626 0.0726535717
0.3630325128 -0.1667305296 -0.2612173052
-0.4259096890 0.2754826873 0.0811181898
-0.3275660444 0.2870502325 -0.2015868787
-0.1694126654 -0.0787106353 0.1570927584
0.1875043943 0.1894228681 0.1438977693
0.4259096890 -0.1509004795 -0.2402369243
-0.4259096890 -0.1608972824 -0.1051947292
-0.4259096890 -0.0955962638 -0.1709458229
-0.0911353893 -0.0862377037 -0.1703170220
0.1808488600 0.0527689403 0.1634303531
-0.2305995395 -0.1674884592 -0.1795168750
0.4259096890 0.2058685928 0.1882513321
-0.4259096890 0.2996441121 -0.1262797170
0.0637359655 -0.0962554235 0.1772994002
0.4259096890 -0.2365150695 -0.0588450004
-0.0311145928 0.2254520789 -0.1428616915
0.3112548242 0.1368293449 -0.2011219968
-0.1672595097 -0.1995902808 0.1886936757
-0.1719457685 0.2714495468 -0.1630675793
-0.2520322451 -0.3747057455 0.1196426921
-0.4259096890 0.2472599289 0.1591920311
0.1562333943 -0.0207559044 0.1554015933
-0.0029582398 0.1953431281 -0.1816564064
0.4259096890 -0.2426815483 0.2182307938
-0.4259096890 -0.3536734844 -0.1874098643
-0.2378634698 -0.3361621174 0.1408456409
-0.3669892467 -0.3110158676 -0.1990552523
-0.1270036207 -0.1844555923 -0.1739081590
0.3441205184 0.2002316109 0.1534158728
-0.2625051392 0.0263399423 -0.1729139350
0.4259096890 0.2427708225 0.1489898545
-0.2975918730 -0.4319725735 0.0926803584
-0.2480345541 -0.4046975995 -0.0977375737
0.3333650049 -0.1735979163 -0.0657690029
0.2041206329 -0.0672694718 -0.1732569683
0.3184096493 0.1803081235 0.1148400995
0.1350778651 -0.1380486418 -0.2015867044
-0.0189207310 -0.2302368741 -0.0834144890
-0.4216624987 -0.4987943802 -0.0189291293
-0.4259096890 0.0844856112 0.0027691702
0.3297046266 0.0395877991 -0.1895037284
-0.4259096890 0.1527691249 -0.0896742120
0.4259096890 0.1650237195 0.2169663845
0.0922291388 -0.1629839549 -0.1967103175
-0.2769847973 0.4776762478 -0.0383009738
-0.2547861121 -0.2883955576 0.1861783867
-0.4004980790 0.1400216032 0.2520430007
0.3434625296 -0.1961480678 -0.1201031284
0.4259096890 -0.0907147216 -0.0017616771
-0.2032523103 0.2559010825 -0.1924010169
-0.4259096890 0.3870606896 0.0734897043
-0.0148087094 0.2198265638 -0.1744873703
-0.1806503432 0.0892598546 0.1608643848
-0.4259096890 -0.1376092387 0.0275749036
0.3856329008 0.0695433003 -0.2643647884
0.4259096890 0.0269601554 0.2575723833
0.2106581102 0.2024515664 -0.1761257548
0.0119530445 0.2122717417 0.1833323491
-0.0821312535 0.3065145923 -0.0564327042
-0.4259096890 0.1674499357 0.2158295705
0.1045269547 -0.0371508423 0.1672270826
0.3651309315 -0.0152712949 0.2265451003
0.2930873803 0.1553137705 -0.0012443191
-0.4259096890 0.2996451289 -0.1696192898
-0.0553730519 -0.0899515375 -0.1763431590
-0.4259096890 -0.2637765008 -0.1830913702
-0.2440270722 0.1293543367 -0.1769768250
0.1614177324 -0.0331042748 -0.1582967092
0.0154900347 -0.1247119992 0.1811765891
-0.2807741065 0.2010022858 -0.1976689235
0.0330848422 0.2165805864 -0.1587607229
-0.3510734250 0.4943053376 0.0290140493
-0.4203042039 -0.1548297361 0.2609448076
-0.2997852759 -0.4873697903 -0.0347865517
0.4259096890 -0.2834976959 -0.1708702859
0.3302332988 -0.1864485888 0.2034502650
-0.3812428409 0.0085577794 0.2466578075
0.2918647347 -0.1613236639 0.1890293568
-0.2291003651 -0.4755523799 -0.0254201813
-0.1135904761 -0.3228094283 -0.0829868438
-0.4259096890 0.3490269763 0.0590490238
-0.1800223208 0.2710251004 -0.1676534817
-0.4141554993 -0.0865950427 -0.2661198537
0.3177743497 -0.2313902794 0.0780449969
0.3789993151 -0.2935368444 0.1290934866
-0.3401541232 -0.4295250521 0.1089546811
-0.2721881674 -0.0811449838 -0.1828965052
-0.4259096890 0.4214131957 0.1163323624
-0.4259096890 -0.3512633120 0.1062400409
-0.3889691030 0.3319708143 -0.1982942470
-0.4259096890 0.3181442406 -0.0261223553
0.0558389621 -0.2049470137 0.0768167556
0.3487988873 0.1774473511 -0.0254490952
-0.2192944928 -0.2731221110 -0.1777783132
-0.4259096890 -0.1901376206 0.1852214924
-0.3236417882 0.3768022497 -0.1437758282
0.4115319137 -0.2932049692 0.0078678043
-0.3197052704 0.4548163015 -0.0782448094
-0.0765585604 0.2587958047 0.1162525797
0.3994976750 -0.2601491456 0.0098546583
0.4259096890 -0.0616021854 0.1239771618
-0.2992926490 0.4320240353 0.0948544717
-0.0656935146 -0.0403065322 0.1733226723
-0.2430666361 -0.2883981003 0.1808986515
-0.4259096890 -0.1009721711 0.0866497938
-0.1272957813 -0.3605168506 -0.0670659571
-0.1848581341 -0.3110184335 0.1361367568
-0.1343234030 0.0388278327 -0.1565962586
0.3686970494 0.2091043398 0.0741232959
-0.3631133892 -0.1475547381 0.2293071777
0.0376055106 -0.2011065621 -0.0201139515
-0.2170420797 -0.2801824363 0.1771601058
-0.1257021109 0.1033748851 -0.1665106168
0.3555597213 0.0495973953 0.2425318245
-0.4259096890 0.0460345549 -0.1118038413
-0.3271471873 0.0337633114 -0.2097639932
-0.2825532332 -0.0514208175 -0.1852260415
0.4259096890 -0.0898508024 -0.0596372703
-0.2330576603 0.3292883159 0.1372660519
0.1654281867 -0.2002268955 0.0630906558
-0.4259096890 -0.2136841539 -0.1545456294
0.0630735622 -0.2008680383 0.0554369983
-0.1395829935 0.0256995216 -0.1547700751
-0.4259096890 -0.1060911476 0.0890914500
-0.4259096890 -0.1869144473 -0.0092093692
-0.2944263525 -0.2960692084 -0.1858758998
-0.4259096890 -0.3976106325 0.0307921861
0.0215649216 -0.0505858921 0.1806694546
0.3774572235 -0.2177216363 -0.0514520142
-0.1634431133 0.4454502423 0.0133691964
0.0529890545 0.1269229567 -0.1796567480
0.1953253701 -0.0476694345 -0.1607415718
0.3599119293 0.2073648109 0.1937747367
-0.0665153676 -0.3094379615 0.0052825080
0.3906574560 -0.1194216418 0.2669587859
-0.4079511947 0.4421266583 0.1223190794
0.1897157208 0.0873293851 0.1852271299
-0.2653872175 -0.2604950679 0.1990224520
0.3163378114 0.1176697781 -0.2009483903
0.1163882247 -0.1977695704 -0.1101845654
-0.2314122060 0.1586189695 0.1788215796
-0.4259096890 -0.2726977476 0.1304183059
0.4089537345 -0.1490437605 -0.2923987556
-0.1376890459 0.0626045221 -0.1581925056
0.0750127169 -0.0508138839 0.1736116968
-0.4259096890 0.4017961471 -0.0092431005
-0.3809227437 -0.0077062628 0.2464180015
-0.0327703507 -0.1525522711 -0.1787566648
0.4029071246 0.2713158410 0.0502620467
-0.1905982592 -0.3486472971 0.1118505009
-0.0684819420 -0.2312173541 -0.1748202260
-0.2572713311 0.0547616107 0.1736318104
-0.4259096890 -0.0280014920 0.1753036592
0.4259096890 -0.0499112557 -0.1688927884
-0.4095385658 -0.0891548589 0.2626349261
-0.4259096890 0.1825753592 -0.2364326428
-0.0831742163 0.2621317448 0.1173767512
0.4259096890 0.0391877004 0.1538798149
-0.4145164583 -0.4982697723 0.0212096247
-0.1299722577 -0.2006800580 0.1883488254
-0.2043677963 0.2658263430 0.1770130072
0.4259096890 0.0585433949 -0.2419389674
0.4259096890 0.1906227006 -0.1753661310
0.0843377191 -0.1647668087 -0.1949895857
0.2827863647 0.1635783746 -0.0301375425
0.1915841390 -0.2314461454 0.1239604199
0.0511194484 0.1097771744 0.1829550667
-0.3926869070 -0.0843264973 0.2518769021
0.3271728261 -0.2801538523 0.1279255601
0.4259096890 -0.2165188291 0.1551717193
-0.1851035813 0.0237794483 0.1514463690
-0.4259096890 -0.1983122484 -0.0729578136
-0.1704928384 0.3223335865 -0.1192647089
-0.4259096890 0.1914225964 0.0194150393
-0.4259096890 -0.2222263307 -0.1777602674
-0.1948957941 0.4397105656 0.0512630156
0.4259096890 -0.0896516742 0.1152540518
0.3904568131 0.2492700927 0.1100048253
-0.0273096163 -0.2408206810 0.0499595681
0.4259096890 0.1361314348 -0.1414678105
0.4259096890 -0.0188476262 -0.0097039701
-0.0568818050 -0.1544231726 -0.1767686833
0.4259096890 -0.0934182736 -0.1930503605
-0.4259096890 0.0829349152 -0.2546724616
-0.1027782961 0.1967818292 0.1747390166
-0.1700429380 -0.3422472521 0.1057348420
-0.0733452266 0.1729446695 0.1756887768
0.4259096890 -0.0105509010 0.3267757757
0.0577545298 -0.2014174960 0.0557265825
0.4109832649 0.1875140197 -0.2635767667
-0.0902163842 0.0994034624 -0.1718233912
-0.4259096890 0.1271503895 -0.0932367960
0.0071557008 0.2144389613 0.0544416316
-0.1357319651 0.1887079426 0.1740868590
0.4259096890 0.0016096143 0.1362512233
0.2329052350 0.0097968280 0.1460261118
-0.0788406317 -0.2656692343 -0.1084113888
0.4259096890 0.0318301892 0.0770883708
-0.4224991725 0.3836186793 -0.1769638179
-0.3315907792 -0.3898373824 0.1379203563
0.3871201885 -0.0063802013 0.2615721345
0.4259096890 0.1025834148 -0.1884587747
-0.4259096890 0.3787642108 -0.1187073371
-0.0584052812 0.2406081380 -0.1261155646
-0.2360039547 0.1433932479 -0.1781070213
0.3800522491 0.1791780735 -0.2426259893
-0.2472690559 -0.2732297821 -0.1819713769
0.3379922264 0.1710117593 -0.0281198969
-0.2192586350 -0.1590924183 0.1800922170
-0.4259096890 -0.1836082748 -0.2102881403
-0.4181290315 0.1218438909 0.2647829539
0.0325979020 0.0921436477 0.1817410473
0.1301489018 0.1952396999 -0.0393623746
0.1731824789 0.1034086557 0.1929857535
0.0019667954 0.0664150174 -0.1814839849
0.4259096890 -0.0091739193 -0.0971033410
0.0044416087 -0.2161224218 -0.0626992813
-0.4259096890 0.0006410373 -0.0521236085
0.4259096890 0.3166745688 0.0137797381
-0.4259096890 0.0144406032 -0.0798479944
-0.4259096890 0.2117478931 -0.0212338126
-0.0984480267 -0.1449203414 -0.1730338523
-0.4259096890 -0.1635335759 0.1260313464
0.1297877106 -0.1917849207 -0.0065047948
-0.4259096890 -0.1550965460 -0.1498605226
-0.4259096890 -0.3909195430 -0.0825103105
-0.3688861927 -0.1588692064 0.2315573122
0.1710611586 -0.2071963083 0.0814204017
-0.4259096890 0.4438026470 0.0812644758
-0.4259096890 0.2803772577 -0.0632315290
-0.4236443504 -0.4849401548 -0.0673634235
-0.4259096890 -0.0561976185 -0.1609752716
-0.4259096890 -0.2779133343 -0.1579006602
0.4259096890 -0.1652374862 -0.2113323233
0.3788812833 -0.1159936941 0.2535363081
-0.4259096890 -0.3533712754 -0.1901742087
0.4259096890 -0.1377700010 0.2517108666
0.4011548979 0.2607585099 -0.1944451420
0.4259096890 -0.2509163698 -0.0805020719
0.2527839220 0.1793177495 0.1880824344
-0.4259096890 -0.3489887460 0.0702146166
-0.1391114708 0.1870686290 -0.1840766298
-0.4259096890 -0.3151138871 0.0528120861
-0.4259096890 -0.4509550450 -0.0672798779
0.4259096890 0.1735615516 -0.0514460574
0.3517120583 -0.0522858272 0.2151543776
-0.4058690909 -0.4060890020 0.1540186044
-0.3145238860 0.0652424705 0.2036875485
-0.1525528487 -0.2580402756 -0.1734006681
0.2847054321 0.2308782515 -0.1031929222
-0.3631670311 -0.4837570852 0.0521710923
0.4259096890 -0.1516081427 0.2653950269
0.1759864921 -0.1896308177 0.1713105494
-0.4259096890 -0.1509140437 -0.1505389151
0.0600680046 -0.1180993631 0.1783337669
-0.2686841789 -0.3908789263 0.1144356896
-0.4259096890 -0.3729009666 -0.0941776965
-0.2799496355 0.0865153800 -0.1845692183
0.3702735814 0.1809259025 -0.2347784295
0.2465149507 -0.1791260483 -0.1063620302
-0.0963260957 0.3571541798 0.0245330232
-0.4259096890 -0.2300619120 -0.1438879462
-0.4259096890 0.4614526527 0.0628071456
-0.3734301899 -0.0688002357 -0.2405704809
-0.4259096890 0.2466970960 0.2329001825
-0.3917644315 -0.2537795793 -0.2256518994
-0.3786983129 -0.2502031240 -0.2215384552
-0.4259096890 -0.3855702020 -0.0324170758
-0.4259096890 0.2481413272 0.1735354516
-0.3120995219 0.3031948102 -0.1947822341
0.0599151110 0.2138544871 -0.1357956450
-0.3494186255 -0.2979996554 -0.1987053926
0.1902601698 -0.0738373690 0.1581530829
0.2338173393 0.1759810569 -0.0340105586
-0.4259096890 -0.3228307489 0.1125695566
-0.0366618966 0.2586590627 -0.0106965090
-0.2895081701 0.3511385175 -0.1490757001
-0.4259096890 -0.1012660987 -0.1635087167
0.0238568696 0.2167624440 -0.1584887139
-0.0832556679 -0.2934191340 -0.0794709602
-0.4164081271 0.3391827205 -0.2015916858
-0.4259096890 -0.3103739823 -0.2154089947
0.2576927141 -0.1679758392 -0.0492936489
0.1527862890 -0.0173109690 -0.1566174458
-0.0302757978 -0.2334505299 -0.1110208752
-0.4259096890 -0.2970642497 0.0812042972
-0.4259096890 -0.1679015343 0.0173071563
-0.1852723166 0.4046352903 -0.0694108455
-0.4259096890 0.3619441828 0.0144250395
-0.3135533560 0.1190299139 0.2053072828
0.4259096890 0.0242335777 -0.3120713674
0.3465329537 -0.2596157692 0.1644726453
0.4259096890 0.1208147978 -0.2407016795
-0.3187261213 0.2446486452 -0.2064381246
0.4259096890 -0.1732554579 -0.2090234016
0.2850251919 -0.0788369199 -0.2180019482
-0.3812408544 -0.1662261712 0.2373957244
0.1397780659 0.2222308153 -0.1405167864
0.4200608696 0.0490110259 -0.3204028098
-0.1485884835 0.3552083436 -0.0826116095
-0.1345269751 -0.0121713198 -0.1555156995
-0.0397654208 -0.0058527668 -0.1782119282
0.1491891594 0.0678713628 0.1713627798
-0.4259096890 0.1718012535 0.0266693165
-0.3784110087 -0.1457291212 -0.2389352754
-0.2034813210 0.3900034968 -0.0887516276
-0.4259096890 0.2110290253 -0.1916170164
-0.1439433382 0.1698752051 -0.1801925931
-0.4259096890 0.1502909813 0.2062085628
0.4259096890 -0.0232854119 0.0532974394
0.2522804028 -0.1086436957 -0.2317933861
0.0876242619 -0.1671507532 -0.1961420583
-0.4259096890 -0.0367448654 0.2107663921
0.4259096890 -0.2227560671 0.0303688840
-0.3686269033 0.1470693625 -0.2323474439
-0.0572292732 -0.2777681185 0.0467395156
-0.4259096890 -0.0450210120 -0.1006693680
0.4259096890 0.2059797726 0.1960204769
-0.2553282881 -0.1982615175 -0.1872913857
0.3945871108 0.0503375844 -0.2773437835
0.3587250328 -0.1244472608 -0.2880202876
-0.2609330877 -0.2840867101 0.1935511493
0.1440453979 0.1580685783 -0.1764054012
-0.3798442078 0.0094443718 0.2456770534
-0.1767792957 0.1798386656 -0.1822905997
0.4022033110 0.2368264015 -0.2202615681
-0.2334801068 0.0928282629 -0.1675478301
-0.4259096890 -0.4119361732 -0.1349747249
0.2854796594 -0.1797450343 -0.1351615601
-0.0319390792 -0.1064542633 0.1801893217
-0.0093235282 0.2248664726 -0.0531640881
0.2587417129 0.1811037462 0.1619878198
0.4067700409 -0.3113733669 0.1043528002
0.4259096890 0.0318399559 0.3105614480
-0.1158991394 -0.3564556908 -0.0593463015
-0.2839445334 0.0332067222 -0.1839520594
-0.4259096890 -0.2314145783 -0.0447971075
-0.0742197922 0.1423939138 -0.1788621475
-0.0531306371 -0.2847599631 0.0105169150
0.3809487844 0.0232879401 -0.2523504315
-0.4259096890 -0.1502521360 0.1893538219
-0.4259096890 -0.3701318026 0.1703194081
-0.2330963766 -0.2808854727 0.1840337191
-0.1365356178 0.0751665153 -0.1600436579
-0.2976923499 -0.4798401112 0.0414497664
0.4259096890 -0.1343455014 0.2279207699
-0.3170784400 -0.3227250310 0.1818571447
-0.4259096890 -0.2652935002 -0.2220750061
-0.0644308030 -0.0106480397 -0.1733327611
-0.4259096890 -0.4406261425 0.0657680187
-0.3757608505 -0.0831954192 0.2407502887
0.4259096890 -0.0088390567 0.3219486874
-0.2501801346 -0.4216407471 -0.0878064044
0.1878940850 -0.2268428004 0.1168038701
-0.4259096890 -0.2097021494 -0.2258666912
0.3258046100 -0.2460639703 0.1696437284
-0.0820446568 -0.3085123663 -0.0610963841
0.3909412818 -0.1531667014 0.2590865251
-0.3699981382 -0.2331279705 0.2230938160
0.4259096890 0.0380467005 -0.2170213061
-0.2560652194 0.2559680734 0.1859029978
-0.4259096890 -0.3021106142 0.2136811533
-0.3532350163 0.0668987417 0.2275005388
-0.1455132916 0.3536978845 -0.0815205538
0.0831878928 -0.1645959057 0.1767411172
-0.2400307683 -0.0199976145 0.1630850301
-0.2232409830 -0.0753338128 -0.1646352505
0.1850821080 -0.0743725548 0.1587245168
-0.2838770659 -0.0474099253 0.1843299505
-0.3749300917 0.0088303255 -0.2422219627
-0.1880112294 0.0032113094 0.1504413998
-0.4259096890 -0.0115241536 0.2591505485
0.4259096890 0.1302277324 -0.1579464236
-0.4259096890 -0.1889777785 -0.1965655646
-0.1358465060 -0.2661849338 0.1506077059
0.3161555690 -0.1878838709 -0.1573003751
-0.1560783382 0.2664414137 0.1724990798
0.0639386414 0.1693464697 0.1910040905
-0.4259096890 0.1723058272 0.0013779557
0.2536945328 0.0595275388 -0.1569409172
-0.1014110494 0.3274787304 0.0666544425
0.1240900136 -0.1850587428 -0.1984451027
0.1201859032 -0.0716681850 0.1672745011
0.4168117259 0.2853116110 -0.1685776903
-0.4259096890 -0.1342359129 -0.1817356744
-0.4259096890 0.2863990449 0.0514797320
-0.4259096890 0.3313863639 0.0337180818
-0.4259096890 0.0186757723 0.2180463797
0.2574347936 -0.1708984430 -0.0667987771
-0.2526701859 0.3642171376 -0.1261239786
0.1317969361 -0.1967729793 -0.1203765697
0.1826051884 0.1894139151 0.1521515011
-0.4259096890 0.3480832144 0.0459445512
-0.4259096890 -0.3161041549 -0.1799359996
0.3023619290 0.1662726561 0.2372868254
0.4259096890 0.2962675748 0.0610533186
0.3013248455 -0.1748321349 -0.1027452715
-0.3262964412 0.0016053611 0.2091377307
0.3631143210 0.2078436832 -0.2181411782
-0.3344825674 -0.4468894883 0.0909147429
-0.4259096890 0.1208164072 -0.0406947868
0.4221066834 -0.0939688888 0.3150900300
-0.2512368464 -0.2680845314 0.1971540795
-0.4259096890 0.0592136697 -0.2611635966
-0.4259096890 -0.0466425132 0.1991749419
0.3657143324 -0.2130223296 0.2125032325
-0.2605069817 -0.3987332966 0.1058098533
-0.1880442352 0.1386919508 0.1695785644
0.4259096890 -0.1506469507 -0.1305261772
0.2375268258 0.1707453412 -0.0170283236
-0.0304008161 -0.2212554217 0.1779839264
0.0666647721 -0.0953992512 -0.1815180127
0.4026584228 0.0070301989 0.2900935872
0.3830454877 0.1156967155 0.2995008367
0.4259096890 0.1099150150 0.1922216080
0.1424234011 -0.1318725085 -0.2009229279
-0.3356352521 0.0803058589 0.2166504340
0.3424805945 -0.0207831230 -0.2028337129
0.3842847729 -0.1046507440 -0.3029604224
-0.3257534085 0.1481721558 0.2115350502
-0.1654616901 0.3362941346 0.1043730046
0.0147284039 0.0380790613 -0.1810291431
-0.4259096890 0.3943294642 0.0056269209
-0.3746996047 0.2387149061 0.2226492416
0.0623249004 -0.1964964111 0.0168389383
-0.4216389846 0.2596996162 -0.2357543985
0.3633173383 0.1886709793 -0.0156060024
-0.4259096890 -0.1904008491 0.0608296355
-0.3039672286 0.1290241147 -0.1990439453
0.4259096890 -0.0253879409 -0.1204795134
-0.0937994626 0.0748247318 0.1690757539
0.4259096890 -0.1274180904 -0.2577655673
0.4259096890 -0.0384119742 -0.1857455782
-0.2202676407 -0.3609042408 -0.1132459471
-0.1973610172 -0.0410739227 0.1531467118
-0.4259096890 -0.2781858267 0.0370595914
0.2199490544 0.0958213237 0.2014422628
0.0823019151 -0.1943472424 -0.0185984559
0.4259096890 -0.1150953696 0.3136061692
-0.3984488932 0.4812434215 0.0682796082
-0.0041972463 0.2219271960 -0.0145683960
-0.4118020404 -0.2437689544 -0.2365558009
-0.4259096890 -0.1423183577 0.2190126132
0.0555503284 -0.1972955335 0.0134854251
0.2719367043 0.1739858546 0.1020259771
0.1397594970 -0.1810716254 0.1729276574
-0.2730170490 -0.0046657319 0.1777070456
-0.0973579301 -0.3436506361 -0.0467777628
0.4259096890 -0.2032178541 -0.0221116068
0.2368768877 0.1337627265 0.2403611397
0.2823937844 0.1784927582 -0.1910240842
-0.4259096890 -0.0514438610 -0.0558399706
-0.3854532047 0.1361369494 0.2438730838
-0.0523958208 0.2805615985 -0.0221206568
-0.3434495379 -0.0838766200 0.2199788656
-0.4259096890 -0.2326864606 -0.0705015584
0.4259096890 0.2974984009 -0.1160915106
-0.0205054510 -0.2295745595 -0.0983538649
0.3090405488 -0.0544190232 -0.2038207598
-0.4259096890 -0.1617052125 0.0468453066
-0.3675634451 -0.4950518074 0.0264203061
0.4259096890 -0.1877238039 0.2684027230
-0.4259096890 0.0056670751 0.1506176019
-0.4176643312 0.0739635925 -0.2693058568
0.3259997109 0.0823728372 -0.1990679770
0.3200397033 -0.0501848531 -0.2080475295
0.4259096890 0.2654253301 0.0651818858
0.4259096890 -0.2546671277 -0.0068768406
0.4259096890 -0.2165039775 -0.0713167322
-0.4259096890 -0.1562924701 -0.2204507703
-0.0105307903 -0.0421990451 0.1811615619
-0.1623142052 0.0897470437 0.1610594789
0.2506491516 0.1652964008 0.0078612204
0.0264892587 0.1686751448 -0.1807244095
-0.1900314232 0.3263801254 0.1216370577
0.3273830006 -0.0966235937 0.2012010522
0.2605107743 0.0121228694 0.1488443598
0.4230284195 -0.3255324150 0.0479285436
0.3906101484 -0.3017284693 0.0854606609
-0.2646963797 -0.1306771056 0.1837561655
-0.0920526614 0.2181717816 -0.1868851167
0.2430546837 0.1795239221 0.1872990038
-0.4259096890 -0.3741447512 0.0039797918
-0.0541199317 0.2615480341 -0.0723448740
0.0725769812 -0.1856361007 -0.1945485610
0.3180510563 0.1781222363 -0.0478858911
-0.4259096890 0.2338258420 0.0070502844
-0.3869935715 -0.4243947063 0.1307786923
-0.0183821416 -0.0376651548 0.1807871364
0.2890406663 0.1598130965 0.0399314318
-0.0346703827 -0.2461687714 -0.0690983915
-0.4259096890 0.2172737959 -0.0413040175
0.4259096890 0.1705218526 0.2181125024
-0.3675327165 -0.4256663763 0.1221403368
-0.4259096890 0.1858420616 0.1959297271
0.0539729721 -0.2149213691 0.1373820294
-0.0709957818 0.3176041624 -0.0039529478
-0.1159601628 -0.1512471708 0.1784768953
-0.4182844572 0.1959267992 0.2518253447
0.4259096890 -0.2144401518 -0.1987226297
-0.1697406034 0.0267683407 -0.1510599253
0.0558929332 0.2004799162 -0.0493944184
-0.1667148651 0.1357764952 0.1683235595
0.3862996349 0.2306542698 0.1893381760
0.3856640414 -0.0455810822 0.2619090058
0.0860974850 0.1346016780 -0.1777490717
-0.4259096890 -0.4440089176 0.1134099888
0.0774943983 -0.0166772259 -0.1721849070
0.2426393173 0.1697003851 0.0337918818
0.4259096890 -0.2467435611 -0.1997706346
-0.1640224973 -0.4143277190 0.0486227459
0.1462647518 -0.0181167131 -0.1580385149
-0.3324954876 -0.0851512829 0.2132185004
0.4259096890 -0.0623504882 0.0752739523
0.3578735501 -0.2084152381 -0.1190641116
0.0384825588 -0.2071755874 -0.1220067603
0.1432256117 -0.2291514651 0.1541528786
-0.1693208798 -0.0416174836 0.1521890192
-0.4259096890 -0.0078854994 -0.1071888502
-0.1196135623 -0.3792842108 -0.0434483987
0.4259096890 0.3065220620 0.0093504115
-0.1992142785 0.4169924321 -0.0671972657
0.1847236426 0.1900973988 0.0970157495
-0.3102959945 0.4129491130 0.1119365458
-0.2700160683 0.3910661847 -0.1140327076
-0.0473740253 -0.1811286229 0.1838169771
-0.3990914924 0.4974237858 0.0243129417
0.0202455173 -0.0264411872 -0.1806941705
-0.2529121182 -0.3261784135 -0.1479427677
0.0646636934 0.2104696447 -0.1768811569
-0.0076938181 0.2243147348 0.0421615337
-0.0046611035 -0.2206211539 0.0922919434
0.1510148992 0.1966146514 -0.0515606607
-0.4259096890 0.2239257148 -0.0971062942
-0.4259096890 0.4140828828 -0.0019258383
-0.3901071780 -0.3829162049 -0.1639521993
-0.4256466457 -0.3706820938 0.1863751522
0.1301431190 -0.1945855308 0.0325613693
-0.4259096890 0.3123658261 0.1918258294
0.2356242765 -0.2233217109 0.0975663503
-0.3559067673 -0.3875542364 -0.1464389676
-0.0831194065 0.0164927662 -0.1686459132
-0.0137516193 0.1847787273 0.1800448731
0.3131811114 -0.1078785967 -0.2685412772
-0.1012465228 -0.3627525654 -0.0296986946
-0.3289161999 0.0135418791 0.2109806145
0.4259096890 0.0475988073 0.0553280547
0.3740581783 -0.1057302451 -0.2987772109
-0.0203641538 0.2227546265 -0.1417052672
0.0528642960 -0.1440012655 -0.1865501637
-0.4259096890 0.0483015619 0.0216207081
0.1476216266 -0.1982192630 0.0533015698
-0.4176604123 0.4128965245 0.1530608668
-0.3772153897 -0.2202279469 0.2279576540
0.4259096890 -0.0260666164 0.2135779010
0.1769919365 -0.1921855529 -0.1250988823
-0.4259096890 -0.2147142894 -0.2132971995
0.3562206866 0.2143661335 -0.0553543632
-0.4259096890 0.1810927609 -0.2069738715
-0.2345446372 -0.2828771994 -0.1780513123
0.1606638026 -0.2206154899 0.1136470564
-0.0012561910 -0.2187087278 0.1736984527
-0.4259096890 -0.1755650734 -0.1403420398
-0.3180911375 0.4387207659 -0.0932384187
-0.4259096890 0.4563862241 0.1077474634
0.3072607268 0.0157856970 0.1683663680
-0.0813797730 -0.0464007690 0.1698512829
-0.0613581192 0.1949214277 -0.1840696727
0.3530192140 -0.0331066448 -0.2239649633
0.2841706147 -0.0929688921 0.1743106938
0.4235603644 0.3254228552 -0.0541507664
0.3158819905 0.0851794219 -0.1922007790
-0.4259096890 -0.0327798125 -0.2450643440
-0.4259096890 -0.4667750126 -0.0799887413
-0.4259096890 0.0604409617 -0.2201819221
-0.4084278930 0.3569363552 -0.1893994855
-0.0961238499 -0.0490022740 -0.1669011399
-0.0608587520 0.2906847918 0.0382141169
-0.4259096890 -0.3266661109 0.0621611559
0.3278847726 0.0660375618 -0.1957855292
0.4259096890 -0.0554775691 0.2840297721
-0.4259096890 0.1736868923 -0.1723532582
-0.3905614736 -0.2608820655 0.2241313905
0.1820661524 -0.1915477363 -0.1179612719
0.3911597585 0.2376220388 0.1840709116
-0.4259096890 0.3006066670 -0.1981437713
-0.0293409630 0.0327346122 -0.1796651317
-0.1455251741 0.1292552243 0.1679596921
0.0435811601 0.1767691260 -0.1799208301
0.0160985256 -0.0739749997 -0.1815321927
-0.0857785622 -0.3437000845 -0.0109911805
-0.3133847259 -0.4518613081 -0.0835866018
0.0820038657 -0.0847546088 -0.1792958613
-0.2722924792 -0.2726405264 0.1984795515
-0.3009679210 -0.1160515143 0.1969382615
-0.4259096890 0.2141105297 -0.1518825128
0.1428355377 -0.1953057061 -0.1348465955
-0.2414296456 -0.3281049584 -0.1416881927
-0.2789543194 -0.0445653766 0.1816511559
-0.0003185240 -0.2189999776 -0.0225370804
-0.4259096890 0.1958077939 -0.1028562798
-0.2685336191 -0.0172095124 -0.1758505689
0.1186831756 0.2199855911 -0.1437136511
0.1537112809 -0.0409390170 0.1577450527
-0.3307065646 0.3168901046 -0.1906446202
0.2727749084 -0.0433588825 0.1560743503
0.3245006666 0.1669287809 0.0590829548
-0.4259096890 0.1203722591 0.1047602083
0.4259096890 0.3263135173 -0.0487059990
0.0917812607 -0.1209643364 0.1754043211
0.3477857656 -0.2463963931 0.0718980320
-0.1598932941 -0.4189336376 0.0413808156
0.3562828969 -0.2709471944 0.0827885449
-0.0815891064 0.1109890457 0.1732079104
0.1915726497 0.1521524366 0.2271347705
-0.0473904418 0.2029259797 0.1769234558
0.3910330601 -0.2441503178 -0.0491459806
0.4259096890 0.1292092416 -0.2503013036
0.1581738251 -0.1886320798 -0.1722829516
0.3708418170 0.1689026239 -0.2391278887
-0.4259096890 0.3689459775 0.1581776594
0.0968172694 0.0308528731 -0.1685253112
-0.4259096890 0.4090323185 0.1016613367
0.2121088946 -0.1846932544 0.1727634712
-0.2185910006 0.2778995741 -0.1787984421
-0.4259096890 0.2898891023 0.0976863305
0.0444765887 0.1530545991 -0.1802760407
0.1828409806 -0.0185651949 0.1504098200
-0.3422655669 0.4102080217 0.1248230638
0.2586367970 0.0581027674 0.1776660550
-0.4259096890 -0.2820141232 -0.1097938590
-0.2915135554 0.0516526417 -0.1886204519
-0.4259096890 0.3851365813 -0.1640960966
-0.4259096890 -0.3145221980 -0.1338275750
0.2215820619 0.1787781248 0.0614735349
-0.4259096890 0.1722832114 -0.0953688095
-0.4259096890 -0.0774823577 -0.0879010697
0.4259096890 -0.0992422643 0.2449695023
-0.4259096890 -0.1918400755 -0.1812507072
-0.4259096890 0.1878398498 -0.1235745035
-0.4259096890 0.0380340659 0.2115842237
-0.4259096890 0.1514760830 0.0805197273
0.4259096890 -0.2960306827 0.0720322242
0.1760856649 0.0381298607 0.1579120786
0.0955785227 -0.1462682528 0.1760707112
0.3397937675 -0.1709520625 -0.2461827807
-0.2778767967 0.3042973379 -0.1798611101
-0.2010689031 -0.4287402297 0.0587733474
0.4259096890 -0.2260475821 0.1239215436
-0.1719808728 -0.2689580252 0.1672779263
0.4259096890 -0.1167714152 -0.0850882620
-0.4259096890 -0.0612506100 -0.2482482591
0.2879015510 0.1653640940 -0.1930443590
-0.4259096890 -0.3978728732 0.0004176964
0.3438185189 -0.2048798697 0.2040994788
0.0955848314 -0.1933530212 0.0052929106
0.1064320559 0.1965668177 0.0750890718
-0.4259096890 -0.2922007708 -0.1813906639
0.2834839080 0.0709880475 0.2054310262
0.1837142920 -0.0094082202 -0.1502856615
-0.4259096890 -0.2306809483 0.0824108589
-0.4259096890 0.1710552059 0.0986222814
-0.3382866529 -0.0042617343 -0.2170782622
-0.2084108095 -0.1332806605 -0.1709803117
-0.3737688767 -0.3083741330 0.2051150429
0.0702271488 -0.1951758666 0.0077585574
-0.0452196010 0.2234814487 -0.1792490948
0.1419862724 0.0993061365 0.1851899096
-0.1660071404 -0.0527260962 0.1533889831
-0.3716291777 0.4450784938 0.1063246906
-0.4259096890 0.3510025513 -0.1569174110
-0.4259096890 -0.0057033710 0.0563925784
0.0336162683 -0.0590912992 -0.1803701378
-0.4259096890 0.4682749637 0.0638268020
-0.4092142499 -0.3864952807 0.1701687758
0.1804064443 -0.1266137406 0.1687787644
-0.3607463137 0.2720011842 0.2096762077
-0.2069418392 0.3274326716 -0.1328673350
-0.4230676654 0.0389026331 -0.2750404864
-0.1077707769 0.2695479751 0.1275557837
0.4259096890 0.1405879778 0.2364152218
0.4259096890 0.1050749329 -0.2631885305
0.4259096890 0.0962788608 0.0393858455
0.1400830412 -0.0422234810 0.1604305769
-0.4259096890 0.0070232734 -0.2030394828
-0.2697931879 0.3481822786 -0.1436291054
-0.4259096890 0.2234911966 0.1800874504
-0.0042014230 -0.1182841638 0.1814906104
-0.2890269330 -0.0186672775 0.1864882750
0.1758989770 -0.1865154052 0.0040956772
-0.1817743260 0.2097261662 -0.1887916044
0.3020284665 0.1562046225 0.0241068132
0.2022422018 -0.2273998756 0.1124171188
-0.4259096890 0.0691364269 0.2479159592
0.4259096890 0.1936748645 0.1861224505
-0.4250100988 -0.2996294005 -0.2221456913
0.0210951855 -0.0621589252 -0.1811735176
-0.1855879108 -0.4597708766 0.0120859351
-0.1709660645 0.3694433639 0.0874741660
0.1462406367 -0.0413544512 -0.1627623336
-0.4259096890 0.3432307114 -0.1096644184
0.2119974339 0.1706774357 0.2161539139
-0.3752172888 -0.0145776642 -0.2424488991
-0.1767773492 0.2953023375 -0.1432641556
0.1147881159 0.0007592760 0.1636774059
0.1299441857 0.2247842581 -0.1631292640
-0.3700187201 -0.0919162012 -0.2376371869
-0.0864294526 -0.1252218406 0.1761771241
-0.2418990676 -0.0234662757 -0.1645160897
0.2971129827 -0.1679032903 -0.0759643976
0.3320676413 -0.0219278419 -0.1920883605
0.2250546501 0.0260393934 0.1505764262
0.0741641307 -0.1041243713 -0.1827400820
0.3010154466 0.2113929974 -0.0822060061
-0.1891536428 -0.3309687693 -0.1188045976
-0.1860777403 -0.0666419856 -0.1572462427
-0.4259096890 0.2741088267 0.1007969678
0.4259096890 0.1491246694 0.1014227419
0.1686104706 -0.0714918368 -0.1731834106
-0.1632536151 0.3844122859 0.0744909080
0.2235150402 0.0823615609 0.1897032638
0.4259096890 -0.1587513688 0.2536948247
-0.1026442650 -0.0171827012 0.1633981610
0.0284085369 -0.2105062836 -0.1661502426
0.3511789263 0.0396705600 -0.2125374729
0.4259096890 -0.1647410109 -0.1730770334
-0.0116296768 -0.1549523730 0.1817950369
-0.4259096890 0.4497715651 -0.0673859290
0.2535099422 -0.2315391797 0.1006053958
0.4259096890 -0.2852068697 0.0771106841
-0.3867041959 0.0686513836 -0.2488030146
-0.0239105399 0.2412796694 0.0240392758
0.4259096890 -0.0682229354 -0.2675082983
-0.0836636553 0.3029220567 0.0684656404
0.1456201299 -0.0350551983 0.1586730053
0.3303771114 -0.2273798071 0.0701504590
0.4259096890 -0.0617603382 -0.0520969448
-0.2530751080 0.3850510508 0.1103250404
0.0972627099 0.0802743016 0.1776960458
0.1946557200 -0.2322676284 0.1240403542
-0.4259096890 -0.2043575430 -0.2409373472
0.4259096890 -0.0302726398 -0.0296067497
0.3305939461 0.2389859566 -0.1837470291
0.2735419051 -0.0618071567 0.1612335033
-0.0052336745 -0.2230592363 0.0137179312
-0.4259096890 -0.3496131121 0.0112282952
0.1554298001 0.2183142211 -0.1195089487
-0.0730936518 0.2465183527 0.1398479215
0.4024173999 0.0131348170 0.2904859393
-0.4259096890 -0.1998906981 -0.1236223543
-0.4259096890 -0.0462898203 -0.1157708717
0.1267182081 0.1837332333 0.2023933676
0.2753474112 -0.1666824823 -0.0624055336
-0.0181507222 -0.2273829786 0.0909770063
0.2162018122 -0.1780048700 0.0198714165
0.4259096890 0.2676875083 0.1412338278
0.2975551959 0.0358286989 0.1752548540
0.4259096890 -0.0233682988 0.1867313262
0.4212676331 0.0365586261 0.3254897693
-0.3924492762 0.1264678950 0.2488882720
-0.4259096890 -0.2234511786 0.1877844136
-0.2972317629 -0.1192754923 -0.1974821292
-0.0830773285 0.3367615694 0.0187184475
-0.3668123443 -0.2857797693 0.2107554261
-0.4259096890 -0.0393953558 0.1300507303
-0.4259096890 -0.2212607823 0.1385003666
0.4259096890 -0.0104673423 -0.2305334024
0.3724120169 -0.2187787064 -0.1893418513
0.3234772501 -0.1678945448 -0.0606762832
-0.1452741671 -0.4247417627 0.0187076619
-0.1233235307 0.0902330165 -0.1646672896
-0.3252730130 0.4929177387 0.0273633038
0.3711748048 -0.2759947159 0.1550171069
0.1919551418 0.0471582933 -0.1533239500
0.1339109742 0.1510898020 0.2053725997
0.4259096890 -0.0482487129 -0.0368048504
-0.3976658283 0.3491888717 0.1898317834
-0.3674944956 -0.3162025077 -0.1971985540
0.3697479330 0.2141360961 0.1954410461
-0.1978307742 0.1591936096 -0.1772922411
0.2087488730 -0.1160231327 0.1665753343
0.0732774051 -0.0229270343 -0.1733287749
-0.2073178495 0.4241316541 0.0695826834
0.3280625187 -0.0091959220 -0.1825926041
0.0953442737 -0.1586885229 0.1761352953
-0.2553347181 0.3227804211 -0.1560605814
0.4046285100 -0.0740370351 0.2921816948
0.3397852415 -0.1612077374 -0.2565683724
0.1420486803 -0.1953732530 -0.0814096170
-0.4259096890 -0.2539127894 0.0246738575
0.4259096890 -0.0695062006 0.1412251940
-0.2053017005 -0.0762219493 -0.1609358166
-0.1094868363 0.1919513718 0.1745127602
0.0710702487 -0.1968505519 -0.0469927254
-0.2451605291 0.2058210568 -0.1923371731
-0.4197230570 -0.0260263411 0.2732048788
-0.4259096890 -0.1193917305 0.1401565988
0.4116918794 -0.0280551110 0.3067763558
0.1327514224 0.1325864622 -0.1744813698
-0.1116143880 0.3567566389 -0.0472522910
-0.4259096890 0.0563695395 -0.1489988068
-0.1984880122 -0.2958192108 -0.1501102423
0.2451816246 -0.1746293349 0.0347943862
-0.2473709541 -0.0587143882 0.1681068971
-0.1686919866 -0.0130150673 0.1504946069
-0.4259096890 -0.3395428420 -0.1594166176
0.0626073807 -0.2004384393 -0.0822078922
-0.4259096890 0.1661787486 -0.1365193833
0.4259096890 0.0507730626 0.3128013214
-0.4259096890 -0.2219489922 -0.0062925616
-0.0920949213 -0.1943600907 0.1865654959
-0.1075080668 0.2273070885 0.1742797962
-0.3339288558 0.3621588764 -0.1582507418
-0.1093991166 -0.2554904005 0.1468708997
0.2390829563 -0.0687424946 -0.1820976423
-0.4259096890 -0.0617791484 0.0618583325
0.4096103976 -0.1384861088 0.2846582334
0.4259096890 0.1416859064 -0.2199557621
-0.4259096890 0.1481172927 0.2282012495
0.0600026978 -0.1975184618 0.0263048996
-0.3367229748 0.2930471612 -0.2016770863
0.4181860717 0.2443276787 -0.2228514685
0.3684735416 0.2216601537 -0.0479954540
0.3328829594 0.2235164967 -0.1951079509
-0.4259096890 -0.4420789448 -0.0211879167
-0.1272033041 -0.3747465680 0.0493722196
0.4192222373 -0.0081750196 0.3213656104
-0.0335396560 0.2516932389 0.0367585098
-0.3766016490 0.4666861358 -0.0817417858
0.3841657049 -0.1094467902 -0.3021776458
0.0470489506 -0.2049488317 -0.1127769795
-0.3682031065 -0.4822641394 0.0560407243
-0.4259096890 0.1284513094 0.2591283086
0.4259096890 -0.0228895140 0.1880722062
0.3750469171 -0.2477649997 0.0522669772
-0.3045508127 0.1297863421 -0.1993549143
0.1450293707 -0.2214242896 0.1228638372
-0.4011114543 0.4997577276 -0.0006464469
0.3780126085 0.2179811878 0.0519713839
0.3228148412 -0.1578713861 -0.0214764719
-0.4259096890 0.1935015305 -0.1338924775
0.3529595610 0.0222145238 0.2155998144
0.4259096890 -0.0248665082 0.2948965036
-0.0650722144 -0.1075921064 -0.1753038410
0.4259096890 0.1831910018 -0.1823997432
-0.4259096890 0.0253606496 -0.1464711105
-0.3153855633 0.4218000968 0.1073919052
-0.2123850961 0.1360686597 -0.1723024912
0.4259096890 0.0941481830 0.2912579354
0.4259096890 0.1312899672 -0.1844286040
-0.1873894745 -0.4429017131 -0.0449177085
0.4195656927 0.0582204128 0.3229481523
0.4113154977 -0.0289517922 0.3060557271
0.4259096890 -0.3273363731 0.0333523956
0.3078888383 -0.1801934886 -0.2106143036
0.4259096890 -0.0794797254 -0.0370581012
-0.4259096890 0.0994580468 -0.0801858036
-0.4259096890 -0.0641206071 0.0799847221
-0.4259096890 0.0188059700 0.2427985903
0.3738094764 0.1443482640 0.2820629048
-0.1137788933 0.2688274835 0.1329944470
-0.1257590615 0.4060804046 -0.0105769202
0.4251888947 0.2362313951 0.2356211013
0.0643081629 -0.0428996934 -0.1761227248
-0.4259096890 -0.1430780622 -0.1809793710
-0.1023129248 0.3066776462 -0.0825765349
-0.4259096890 -0.2731523281 0.0831550421
-0.1313193848 0.3722216521 -0.0556279661
-0.2613694443 0.2521881057 -0.1972036239
0.4259096890 -0.2664255922 0.0190729609
-0.2655026949 0.0495940209 -0.1752862108
0.3520935278 -0.0405786124 0.2131581697
-0.3393831219 -0.4981605273 0.0027987687
-0.1885513142 -0.1682670311 0.1808285418
0.1744899711 -0.0300986676 -0.1557285782
-0.1648332224 0.0103835143 -0.1506871442
0.4259096890 -0.0265162174 -0.2422811873
0.1609454089 0.2133792148 -0.1049530347
