-0.0366255197 -0.0136766366 0.2131674475
-0.0813222736 -0.0136766366 0.2958878797
-0.0078582758 -0.0136766366 0.0857377776
0.0287472637 0.0136766366 -0.0269016929
0.0401871004 0.0136766366 0.2346052081
0.0226011194 -0.0136766366 -0.1526288220
0.0025198676 0.0136766366 0.1928463017
0.0031315038 -0.0136766366 -0.1696245366
0.0828467092 0.0023170887 0.0324940518
0.0529697221 -0.0136766366 -0.0687999930
-0.0346666319 -0.0136766366 0.4298882893
0.0624171441 0.0136766366 0.3418440813
0.0818471539 -0.0136766366 -0.0355085603
-0.0828361329 -0.0107314592 0.4198601209
-0.0152346133 -0.0136766366 -0.1690233287
0.0068682418 0.0085145237 0.5000000000
0.1581806663 0.0136766366 -0.0870639411
-0.0071375786 -0.0136766366 -0.3550764466
0.0828467092 -0.0084133801 0.3006254031
-0.0681000606 0.0136766366 0.4827928555
0.0126538121 0.0136766366 0.3476768640
-0.0158619444 -0.0127162825 -0.1810661330
0.0047495488 0.0136766366 -0.4092596134
-0.0107256061 0.0136766366 -0.0184096180
-0.0309181173 -0.0077477693 -0.4244110716
-0.0401471184 -0.0136766366 0.2986939271
0.0066824899 0.0136766366 0.3770127102
0.0230616987 0.0030394044 -0.4137525553
0.0117901633 -0.0136766366 -0.3021402588
-0.0158619444 -0.0117267404 -0.3905896655
0.0418319643 -0.0136766366 0.3982201436
-0.0156742539 -0.0136766366 -0.0374014949
-0.0414569644 -0.0136766366 0.4948942413
0.1140791608 -0.0136766366 -0.1633268230
-0.0787330162 0.0136766366 -0.1056441362
-0.0158619444 -0.0036719435 -0.2525251063
-0.0642047912 -0.0136766366 0.3366304968
0.0540251602 -0.0136766366 0.0083457240
0.0064264416 -0.0136766366 0.3812863077
-0.0634544727 -0.0136766366 0.0947325684
0.0163566859 0.0136766366 0.0614778492
0.0629940962 0.0136766366 -0.0751797188
0.0075004358 0.0136766366 0.1446062703
0.1289713231 0.0136766366 -0.1051549873
0.1509193973 0.0136766366 -0.0974890069
0.0085090979 -0.0136766366 0.1944276175
-0.0670263372 0.0136766366 0.4918710387
0.0231468688 -0.0136766366 0.1533626233
0.0411192685 0.0136766366 -0.0251470647
0.0318833532 0.0136766366 0.2992789298
-0.0038251612 0.0136766366 -0.1154114707
-0.0479435589 -0.0136766366 0.0845267928
0.0584914724 0.0136766366 0.3874558479
-0.0236398552 -0.0136766366 0.4645854467
-0.0358155012 -0.0136766366 0.1998657824
0.0153206502 -0.0002462298 -0.2550719232
0.0435217528 -0.0136766366 0.4349590003
-0.0158619444 0.0027457823 -0.2089946026
-0.0013586838 -0.0136766366 -0.0451261024
-0.0484562086 0.0136766366 0.3911881338
0.0153206502 -0.0112332384 -0.3513768016
-0.0708910701 -0.0136766366 0.1689025189
-0.1290920175 0.0136766366 -0.1664787125
-0.0756174179 0.0136766366 0.3589331787
-0.0441496145 0.0136766366 0.4271549609
0.0593504420 -0.0136766366 0.4159126998
-0.0797945959 0.0136766366 -0.1302147586
-0.0159547625 0.0136766366 0.3370594811
-0.0256081632 -0.0136766366 -0.0159043404
0.0087615978 0.0136766366 0.1572405091
0.0358418424 -0.0136766366 0.0962613252
0.0217090357 0.0136766366 0.1300015198
0.0153206502 -0.0036899388 -0.1900577241
0.0012691311 -0.0136766366 0.4394148896
0.0110764160 0.0136766366 0.2293999064
-0.0802881574 -0.0136766366 0.2922925785
0.0202377599 0.0136766366 0.4688430766
-0.0292457699 0.0136766366 0.2759249781
0.0501667596 0.0136766366 -0.0985305360
-0.0962339317 -0.0124286283 -0.0545303996
-0.0573632115 0.0136766366 0.1180877599
-0.0493323752 0.0136766366 0.1683388568
-0.0820075112 -0.0136766366 0.3260546327
0.1138573912 -0.0083187710 -0.1694940367
-0.1646488206 -0.0046612003 -0.1354236281
-0.0450650625 -0.0136766366 0.1407015454
-0.0200494761 -0.0136766366 -0.4415478941
0.0210840676 0.0136766366 -0.1626765762
-0.0279508961 0.0136766366 0.0606050822
-0.0361775374 0.0061032126 -0.1694940367
0.0193048023 -0.0136766366 0.0667525023
-0.0828361329 -0.0058023732 0.4643852200
0.0497191102 -0.0068589607 -0.4559155240
0.1166083221 0.0136766366 -0.1679305405
-0.0474294886 -0.0099476515 -0.4579390102
0.0588582162 -0.0136766366 0.4533264748
0.0189984656 0.0136766366 0.0491741839
-0.1321021635 0.0136766366 -0.1039732995
0.0098201198 0.0136766366 -0.1195623925
-0.0059740641 0.0136766366 -0.3755315116
-0.0041790458 -0.0136766366 -0.0841655549
-0.0763733858 -0.0136766366 0.1697217142
0.0153206502 -0.0005233526 -0.3928444107
0.0142217912 -0.0136766366 -0.0383208802
-0.0705303289 0.0136766366 0.0716350539
-0.0445880844 -0.0136766366 0.0513814646
-0.0158619444 0.0090816057 -0.3349840988
0.1178788139 -0.0048040275 -0.0545303996
-0.0172920000 0.0136766366 0.2306698792
-0.0355905669 0.0136766366 0.1655681988
0.0561107930 -0.0136766366 -0.1391177682
-0.0828361329 0.0083790701 0.2131330000
-0.0956054872 0.0136766366 -0.1519483181
-0.0100045764 0.0136766366 -0.2223471911
0.0795731979 -0.0136766366 0.2605629173
-0.0001742026 -0.0136766366 -0.1975567867
-0.0420921683 0.0136766366 -0.0657803362
-0.0828361329 0.0012506182 0.2060802382
0.0035776399 0.0136766366 0.2865054782
0.0689164988 -0.0136766366 0.3884109307
0.0727486185 0.0136766366 0.1122219311
0.0025843066 0.0136766366 -0.4173040882
-0.1619563107 0.0066532582 -0.1378468898
-0.0230665441 0.0136766366 0.3524267647
0.0458989151 -0.0136766366 0.3418484323
-0.0828361329 -0.0133794264 0.1975328264
-0.0622403540 0.0136766366 0.3190008952
-0.0778345426 -0.0136766366 0.4527623940
0.0208390667 0.0136766366 -0.1078135029
-0.1156041900 0.0131347499 -0.1694940367
0.0346326780 0.0136766366 0.2587573550
-0.0158712431 0.0136766366 0.0934587283
0.0797426741 -0.0136766366 0.3794422245
0.0828467092 -0.0059384991 0.4896786262
-0.0411388505 -0.0136766366 0.2058758701
0.0170266596 -0.0136766366 0.3485857434
-0.0037327517 0.0136766366 0.1567884194
0.0329246913 0.0136766366 0.4871861454
0.0063790173 -0.0136766366 0.2987545600
-0.0056632662 -0.0136766366 -0.0677416536
0.0634997403 -0.0136766366 -0.0548798703
-0.1219471918 0.0136766366 -0.1497159342
-0.0660736508 -0.0072118197 0.5000000000
-0.0756038187 0.0136766366 0.4314770379
-0.0465242331 0.0136766366 0.0759248125
-0.0790714134 -0.0136766366 0.2517083480
-0.0386819310 0.0136766366 -0.0169420021
0.0646828567 -0.0103280170 -0.1694940367
-0.0752902149 0.0136766366 0.4359233912
0.0146169938 0.0136766366 0.3601590024
-0.0226297160 0.0136766366 0.4359246898
0.0537420461 -0.0136766366 0.0714905269
-0.0849057055 0.0127641611 -0.1694940367
0.0551419839 -0.0136766366 0.2166725857
0.0068277054 -0.0136766366 0.4307384039
-0.0727993119 -0.0136766366 -0.1685077704
0.0301286447 -0.0136766366 0.2899266838
-0.0406539932 0.0136766366 -0.1303099816
0.0153206502 0.0010373223 -0.2463154432
0.0788683491 0.0136766366 0.1440967735
-0.1027506898 0.0136766366 -0.1284745635
0.0230194188 0.0136766366 0.3395820917
-0.0828361329 -0.0038886994 0.4337527797
0.0619384479 0.0136766366 0.3013795836
0.0828467092 0.0083447027 -0.0286863223
0.0174386592 -0.0136766366 -0.0661791668
-0.0828361329 -0.0013631586 0.4553922382
0.0153206502 0.0064044131 -0.3727484719
0.0625897391 0.0136766366 0.3741156430
0.0795584915 0.0136766366 0.2302036516
0.0527148304 -0.0136766366 -0.1488570198
-0.0027639595 0.0136766366 -0.0272506242
-0.0158619444 -0.0077444393 -0.2333561648
0.0281056389 0.0136766366 -0.1213777698
-0.0562256733 0.0136766366 0.4149198755
0.0446028806 0.0136766366 -0.0746065173
-0.0210991128 -0.0136766366 0.3152629594
0.1168665575 -0.0136766366 -0.1432647880
-0.0650410449 -0.0136766366 0.1564799906
0.0026479250 -0.0136766366 -0.3558336169
-0.0678948665 -0.0136766366 -0.0269257797
0.0380802619 0.0136766366 0.3255452660
0.0506199458 -0.0136766366 0.1486818713
0.1657215422 -0.0136766366 -0.1094963920
-0.1041215215 0.0136766366 -0.0887186072
0.0340163043 0.0136766366 0.0012229892
0.1515869250 0.0136766366 -0.0966312905
-0.0806284801 0.0136766366 0.2600521655
-0.0334065675 -0.0136766366 0.4019984829
0.0706437741 -0.0136766366 -0.1565816142
0.0150778221 0.0136766366 0.0680664433
0.0432224020 -0.0136766366 0.3450011946
0.0828467092 0.0031356183 0.4701186384
-0.0623053861 0.0136766366 -0.0772993384
-0.0158619444 0.0013984542 -0.1940676390
0.1173500322 0.0136766366 -0.0586786294
0.0217746666 0.0136766366 -0.0224048038
-0.0372501727 -0.0136766366 0.4826283989
-0.0860551279 0.0136766366 -0.1226505827
0.0254883543 0.0136766366 0.3784732402
-0.0392860738 0.0136766366 -0.1205415929
-0.0893352206 -0.0136766366 -0.0823018051
-0.0997336718 -0.0136766366 -0.1583354757
-0.0279590491 -0.0041374665 -0.4204020082
0.0148474767 -0.0136766366 -0.4141730926
0.0122464305 -0.0136766366 0.4292002109
-0.0828361329 -0.0026345306 0.3932706168
-0.0363202953 -0.0136766366 -0.0257253972
0.0681826126 0.0136766366 0.3684365490
0.0828467092 -0.0039940082 0.3208820823
0.0165396684 0.0136766366 0.3167560328
-0.0662513316 -0.0136766366 0.2494412801
0.0446697088 -0.0136766366 0.0282110425
-0.0098090176 -0.0136766366 0.0140055093
0.0315196409 -0.0136766366 0.3049788002
-0.0577189605 0.0136766366 0.2806012520
-0.0068011415 -0.0136766366 0.1327518684
-0.0751210064 0.0069780462 -0.1694940367
-0.0179293983 0.0136766366 0.0760074254
0.0828467092 -0.0057400182 0.4293814007
-0.0335219924 0.0136766366 -0.4671414776
-0.0329639480 -0.0136766366 -0.0097702160
0.0034394976 -0.0136766366 -0.1884786855
0.0452335827 -0.0136766366 -0.1101344032
-0.0414632398 -0.0136766366 -0.0413809644
0.0828467092 0.0071202424 0.2755614625
-0.0828361329 0.0087343248 0.3161351736
0.0768530770 0.0136766366 0.3433758140
-0.1291984410 -0.0031625884 -0.0564548921
-0.0249149970 0.0136766366 0.1939480446
0.0450249547 0.0136766366 0.0969251033
0.1015265198 -0.0136766366 -0.1129838087
-0.0390578673 0.0136766366 0.4172487938
0.0545722880 -0.0136766366 0.4221478488
-0.0716670748 -0.0136766366 0.3036799539
0.0445595782 0.0136766366 -0.1519001972
0.0013152352 -0.0136766366 0.1335812913
0.0320338270 0.0136766366 -0.0175854267
0.0828467092 0.0016181230 -0.0112121090
0.0691725207 -0.0136766366 -0.0238933440
0.0622943064 0.0136766366 -0.1201136382
0.0711016317 0.0136766366 0.1592121077
-0.0255453571 0.0136766366 -0.4700531248
-0.0716384291 -0.0136766366 0.3506773813
0.0793278384 0.0136766366 0.3851238516
0.0539206969 -0.0136766366 0.0668253223
0.0772015155 -0.0136766366 0.4036824214
0.0030204451 0.0136766366 0.4182723363
0.1519826430 -0.0136766366 -0.1214812814
-0.0633741419 0.0136766366 0.4628555433
0.0828467092 -0.0100609390 0.1751302619
0.0069231089 0.0136766366 0.3989403851
-0.0145748185 0.0136766366 0.1852832994
-0.0565899536 -0.0136766366 -0.1083200336
0.0224766749 -0.0136766366 -0.1145687662
0.0515089394 -0.0136766366 -0.0516073246
-0.1499475361 0.0136766366 -0.0976288154
0.0432568848 0.0136766366 0.3425084114
0.0666397967 0.0136766366 0.1424167123
-0.0318316193 -0.0136766366 0.4525431761
-0.0318588297 0.0136766366 0.3866305306
-0.0082682826 -0.0136766366 0.2890651235
-0.0642450980 -0.0052898263 -0.1694940367
-0.0936343243 -0.0136766366 -0.0992420205
-0.0422424915 -0.0069376614 0.5000000000
-0.0587252197 -0.0136766366 0.2292678375
0.1091721836 -0.0052604916 -0.0545303996
0.0035321259 -0.0136766366 -0.2492657251
0.0268874831 -0.0136766366 0.4991071615
-0.1166897277 -0.0136766366 -0.1183941260
0.0828467092 0.0034098384 0.1178214180
0.0361757859 -0.0001650655 -0.4315200320
-0.0334775123 0.0136766366 0.4365900150
-0.0693915411 -0.0136766366 0.2687468929
0.1646491405 -0.0136766366 -0.0921434629
-0.0511009623 -0.0136766366 0.2738026978
-0.0105538688 -0.0136766366 -0.1627605152
0.0474804186 -0.0136766366 0.1142460575
0.0917797094 -0.0136766366 -0.1587981070
0.1128595253 -0.0136766366 -0.1652626646
-0.0158619444 0.0020701494 -0.1698516185
-0.1365189273 -0.0130501225 -0.0623112858
0.0096214930 0.0136766366 -0.3465929317
0.0375594347 0.0136766366 0.2454257889
0.0427494825 0.0136766366 0.3624787345
-0.0158619444 0.0071745426 -0.3359205293
0.0277841575 0.0136766366 0.3141545932
-0.0615274770 -0.0136766366 0.4208177204
0.1769356107 0.0044074250 -0.1243750266
0.0345697272 0.0136766366 0.3047588614
0.0920831481 0.0136766366 -0.1088061486
-0.0357961693 0.0136766366 0.0168649509
0.0088104040 0.0136766366 -0.4204157786
0.1525875006 0.0136766366 -0.1185311449
-0.0828361329 0.0131727607 0.0770505624
-0.1622437508 -0.0136766366 -0.1087215436
0.0366614435 0.0136766366 -0.4427553532
-0.1336586390 -0.0136766366 -0.0647252580
-0.0604509089 0.0136766366 0.3006609672
0.1428393886 -0.0136766366 -0.1028217582
-0.0577918088 0.0136766366 0.3582657762
0.0656242551 0.0136766366 0.4407418438
-0.0268898139 0.0136766366 0.4703646640
0.0276493423 -0.0136766366 0.4958702016
0.0224621439 -0.0136766366 0.3349933474
-0.0695330914 -0.0136766366 0.4574943599
0.0512225115 0.0136766366 0.4609597632
0.0042591038 -0.0136766366 0.4662807015
-0.0687556972 0.0136766366 -0.1427061544
-0.0613989832 -0.0136766366 0.2445567917
-0.0226964976 0.0136766366 0.1964257096
0.0144988349 0.0136766366 0.2200511323
-0.0158619444 0.0104692575 -0.2056798262
-0.1177109445 0.0136766366 -0.1421620070
0.0144154147 -0.0136766366 0.1938508626
0.0450187251 0.0136766366 0.2752349947
0.0125774143 -0.0136766366 -0.0578611436
0.0750025477 -0.0136766366 0.4469553480
-0.0761532410 -0.0136766366 0.3655368865
0.0305075488 0.0136766366 0.0207948834
0.0196145568 -0.0136766366 0.0983223548
0.0025771779 0.0136766366 0.4810309157
0.0153206502 -0.0003162095 -0.2118264529
0.0116557733 -0.0136766366 -0.4549195521
0.0230455392 -0.0136766366 0.3068859589
0.0225238179 0.0136766366 0.4513026461
-0.0625556724 -0.0136766366 -0.0674643224
0.0171487333 -0.0136766366 0.0658634175
-0.1780520194 -0.0019931423 -0.1233607396
0.0372756421 0.0136766366 0.4691595579
0.0323185533 -0.0136766366 -0.4357089152
-0.0794565254 0.0136766366 0.3227489134
0.0387126627 -0.0136766366 0.2830726639
0.1669786197 -0.0108230858 -0.0866705971
0.0867651235 -0.0136766366 -0.0587525276
-0.0053357689 0.0136766366 -0.4323313552
0.0009898348 -0.0136766366 0.3089116690
-0.0559277323 -0.0136766366 0.1516105307
0.0590340188 0.0136766366 0.4184959128
-0.0828361329 0.0078375143 0.4366000515
-0.0032125778 -0.0136766366 -0.3430706993
-0.0478997639 0.0136766366 -0.0609004637
0.0203070163 -0.0136766366 0.0333834792
0.1023576668 0.0136766366 -0.1173306947
0.0284334929 -0.0136766366 0.0942152904
0.0022780315 0.0136766366 -0.0946797739
-0.0583907625 0.0136766366 -0.0878040474
0.1539108968 0.0136766366 -0.1318743709
0.0790209447 -0.0136766366 0.3920825121
0.0026074521 0.0136766366 -0.3187546250
0.1166623113 0.0136766366 -0.1040239284
0.0260435742 0.0136766366 -0.4502479365
0.0828467092 -0.0021648699 0.3664641485
-0.0328813259 -0.0136766366 0.1808670929
-0.0591010826 -0.0136766366 0.2633915596
0.1556357608 -0.0136766366 -0.1207649792
0.0828467092 0.0103249267 0.3680498251
0.1670613724 -0.0136766366 -0.1001705275
-0.0091768383 -0.0136766366 -0.2456913511
0.0713167320 0.0136766366 0.3516538616
-0.0494990292 -0.0136766366 0.3353444207
-0.1299506479 0.0136766366 -0.1010797871
0.0037468262 -0.0136766366 0.3702020289
0.0406153491 -0.0136766366 -0.0159920866
0.0187881068 0.0136766366 0.1917509289
0.0397506725 -0.0136766366 0.3348850130
0.0325264245 0.0136766366 0.3064993803
-0.1527735360 -0.0136766366 -0.1332623437
-0.0828361329 0.0053214800 0.3964313107
0.0282223847 0.0136766366 0.3833381313
-0.0364379625 -0.0136766366 -0.0430871582
0.0828467092 0.0046641812 0.2313274625
-0.1406538969 -0.0136766366 -0.1538115530
-0.0102560544 -0.0136766366 -0.4765821621
-0.0044812370 0.0136766366 -0.4954334850
-0.0828361329 -0.0111541833 0.0133461432
0.0038232656 -0.0136766366 -0.3573563291
-0.1512047973 -0.0136766366 -0.0907162714
-0.0625824855 -0.0136766366 0.4273372510
0.1596350631 -0.0100044196 -0.0807957439
0.0221314976 -0.0136766366 -0.4361276349
0.0050195629 -0.0136766366 0.4009933990
-0.0180267953 -0.0136766366 0.0728456610
0.0828467092 0.0123060767 0.4355871699
-0.0179358206 0.0136766366 0.0242185581
-0.0136482714 0.0136766366 0.2433780270
0.0118182566 -0.0136766366 0.1768878469
-0.0436733481 -0.0136766366 0.1963033649
0.0828467092 0.0078627945 0.4152869584
0.0101314243 0.0136766366 -0.0636929344
0.0277291536 -0.0128349112 -0.4754396316
-0.0065127514 -0.0136766366 -0.4895194642
0.0828467092 0.0035491021 0.3332464585
-0.0431746365 0.0136766366 0.1567628641
0.0443297079 0.0136766366 0.1814247028
-0.0828361329 -0.0042478030 0.3054364655
-0.0425183916 -0.0136766366 0.4437124666
0.1031512501 0.0136766366 -0.0957981896
0.0069842771 0.0136766366 0.3649077437
0.0336456299 -0.0136766366 -0.1508648755
0.0298886817 0.0136766366 0.0028371972
-0.0828361329 0.0088087311 0.4113488527
0.0756338180 -0.0136766366 0.0201906478
-0.0550222795 0.0136766366 0.4711434600
0.0417640896 0.0136766366 -0.0353740676
-0.0070038502 -0.0136766366 0.4779287789
-0.0668340937 -0.0136766366 -0.0623615889
0.0612321728 -0.0136766366 0.1031097853
-0.0017289686 0.0136766366 -0.3579752280
-0.0175823885 0.0103333135 0.5000000000
0.0673298156 -0.0136766366 0.4962751816
-0.0013493017 0.0136766366 0.1783114922
-0.0105269464 0.0136766366 0.4158640353
-0.0828361329 0.0061360122 0.0618200222
0.0070657352 0.0136766366 0.1162828639
0.0132108574 -0.0136766366 0.2014302833
-0.0745355423 -0.0136766366 0.1089966291
-0.0234252550 -0.0136766366 -0.1372475207
0.0743579289 0.0136766366 0.0434698443
-0.0156086602 0.0136766366 -0.1051447911
0.0775768875 -0.0136766366 -0.1202504692
-0.0677389132 0.0136766366 0.4663600951
-0.0712640248 -0.0136766366 0.0295464619
-0.0255729165 -0.0136766366 0.1804857613
0.0602192584 0.0136766366 0.2155791687
-0.0828361329 -0.0113970756 0.2098535191
-0.0716625517 0.0136766366 0.1290852130
0.0343605962 -0.0136766366 0.2207325820
-0.0481740646 -0.0136766366 -0.1643320953
0.0316098665 0.0136766366 0.3277358547
0.1137067853 -0.0136766366 -0.1406386297
-0.0366997693 -0.0136766366 -0.4452820720
0.0828467092 0.0128600471 0.2754918906
-0.0005911936 0.0136766366 0.3240307407
0.0455267614 -0.0136766366 0.2539106953
-0.0798760837 -0.0136766366 0.2514148409
-0.0792283804 0.0136766366 -0.0982004068
-0.0828361329 0.0093419294 0.3749082350
-0.1249686581 -0.0136766366 -0.0834503646
-0.0828361329 0.0027425873 0.3225208447
0.0336425357 -0.0042276328 -0.4280878845
0.0306724128 -0.0136766366 0.2454412614
0.0180370956 0.0136766366 0.0912847456
0.0168599136 -0.0136766366 0.0960425301
-0.0620598048 0.0136766366 0.2517013901
-0.0224495077 0.0136766366 0.1136800299
-0.0237816143 -0.0136766366 -0.4233753909
-0.0219354851 0.0136766366 -0.0116164536
0.0293133038 0.0051124018 -0.4740331220
0.0616976164 -0.0136766366 0.3522424796
-0.0134142158 -0.0136766366 0.4436135066
0.0090864998 -0.0136766366 -0.2932395852
0.0851622486 -0.0136766366 -0.0657708756
-0.0577510486 -0.0136766366 0.4583317962
0.0746651084 0.0136766366 -0.0481450876
-0.0828361329 -0.0058351538 0.3005202634
0.0240037003 0.0136766366 -0.1267551852
0.0532145271 0.0125027420 0.5000000000
0.0212065901 0.0136766366 -0.1689340622
-0.0020105240 0.0136766366 0.3523914914
0.1365205358 0.0041629906 -0.0623041080
-0.0207444917 -0.0136766366 0.1922802071
-0.0459275268 0.0136766366 0.4413244451
0.0102057677 -0.0136766366 0.3668906471
0.1319336847 -0.0136766366 -0.1392304700
0.0013024979 0.0136766366 0.2475648568
0.0370026714 -0.0052469911 -0.4672060066
0.0595291897 -0.0136766366 -0.0801052938
-0.0792525713 0.0136766366 0.0954527182
0.0734403098 0.0136766366 0.3638098128
0.0570116250 0.0136766366 -0.0287346998
-0.0350166031 -0.0136766366 0.2470797915
0.0811518063 0.0136766366 0.2277682673
-0.1085249253 -0.0136766366 -0.0548923629
-0.0275199979 -0.0056396301 0.5000000000
0.0707867030 -0.0136766366 0.1826748451
-0.0706597473 0.0136766366 -0.1274290196
-0.0245438502 0.0136766366 0.0879511895
0.0356786618 0.0136766366 -0.1506672963
0.0725699306 -0.0136766366 0.0863222422
0.0870154457 0.0118731376 -0.0545303996
-0.0351247811 0.0136766366 0.3280707749
-0.1075397127 0.0136766366 -0.0881493834
-0.0257249910 0.0136766366 -0.4720390460
0.0828467092 -0.0040777706 0.1567757286
0.0632140067 0.0136766366 0.4012551299
-0.0828361329 -0.0084303515 0.2079235831
-0.0109154140 0.0136766366 0.0246068237
0.0210073783 0.0136766366 -0.4127535062
-0.0669439442 -0.0136766366 0.1675455655
-0.0117495963 0.0136766366 0.0029663084
0.0160488241 -0.0136766366 0.1405308470
-0.0396139452 -0.0035401457 -0.1694940367
-0.0735515653 0.0136766366 0.4583343712
0.1674023215 0.0136766366 -0.1109184910
0.0483964460 -0.0081443082 -0.4480770567
-0.0144500717 -0.0136766366 -0.4120664045
0.0613276829 0.0136766366 0.1950652564
-0.1573692484 -0.0136766366 -0.0931691609
0.0115261249 -0.0136766366 0.0556617411
-0.0262581384 0.0136766366 0.2991186174
0.1387312421 0.0136766366 -0.1221234437
0.0120333538 -0.0136766366 -0.3964310783
0.0194632197 0.0136766366 0.2344868877
-0.1474471669 -0.0136766366 -0.1064896676
0.1385294042 -0.0136766366 -0.1554796097
-0.0517003086 0.0136766366 0.1837370862
0.0828467092 -0.0063408910 0.1894442670
0.0379197564 0.0136766366 -0.0016507021
0.0311684086 0.0136766366 0.4278715888
0.1276999913 -0.0136766366 -0.0885306372
-0.0458453358 0.0042156786 -0.4446350464
0.0211970140 0.0136766366 0.0647164446
0.0187504164 -0.0136766366 0.1573302624
-0.0045589308 0.0136766366 -0.2146851271
-0.0645360601 -0.0136766366 0.4015311932
-0.0995660216 -0.0136766366 -0.0681394300
0.0828467092 0.0051184494 0.1575067474
-0.0828361329 -0.0109242031 0.0706766415
-0.0114433384 -0.0136766366 0.2805654988
0.0200451168 0.0136766366 0.2382106898
0.0113681308 -0.0136766366 -0.2402969136
-0.0218086126 0.0136766366 0.0821725634
-0.0504577064 -0.0136766366 0.2022514288
0.0792024681 0.0136766366 0.1370421007
-0.0342898918 -0.0136766366 0.3328205382
-0.0818286902 -0.0136766366 0.4045210778
0.0044888451 -0.0136766366 0.3534831900
0.0308419483 0.0115743885 -0.4242935413
-0.0505702422 0.0136766366 0.0697338393
0.0383825844 0.0078888026 0.5000000000
0.0828467092 -0.0073639469 0.3628923903
-0.0820774773 -0.0130816076 -0.1694940367
0.1613244784 -0.0136766366 -0.0998054361
-0.0072401286 0.0136766366 -0.0750585865
-0.0004639978 0.0136766366 0.3407347311
-0.0804012450 0.0136766366 -0.0488294302
0.0456077406 0.0136766366 0.0361997574
-0.1812689225 -0.0034134354 -0.1204655238
-0.1009853903 -0.0136766366 -0.1321323598
-0.0828361329 -0.0060528929 0.1862510427
-0.0157448358 -0.0136766366 -0.4591234130
0.0710499318 -0.0136766366 0.2772874712
0.0482100527 0.0136766366 -0.1660628489
0.0178830646 -0.0136766366 0.2183960706
0.0499337289 -0.0136766366 0.0184880925
0.0108174779 0.0136766366 0.0763685070
-0.0166699121 0.0005069445 -0.1694940367
-0.0014212944 0.0136766366 0.4325688703
0.0552159707 -0.0136766366 0.1830827573
-0.0606353427 -0.0136766366 0.1704877705
0.0496830715 -0.0136766366 -0.0562146100
0.0266751448 -0.0136766366 -0.0919698601
0.0619966035 0.0136766366 0.0955014602
0.0828467092 0.0095171571 0.4288127620
-0.0802315365 -0.0136766366 0.1730198028
0.0671761454 -0.0136766366 0.3579190636
-0.1023381688 -0.0108102844 -0.0545303996
0.0153206502 0.0013012167 -0.2682725901
0.0640793601 -0.0136766366 0.4821070359
0.0388440372 0.0136766366 -0.1200948074
-0.0088041002 0.0136766366 0.2765966852
0.0001976204 -0.0136766366 -0.0159424347
0.0123899024 0.0136766366 -0.3984980018
-0.0492112656 -0.0136766366 0.3394037587
-0.0468534080 -0.0136766366 0.4379699133
0.0064775696 0.0136766366 -0.0908101546
-0.1295368638 -0.0095156790 -0.1670244029
0.0107654260 -0.0136766366 0.0414863494
-0.0417632923 0.0136766366 -0.0593935177
-0.0743244259 0.0136766366 -0.1081199799
-0.1315238857 0.0136766366 -0.1567159800
-0.0485590063 -0.0136766366 0.2532198053
-0.0828361329 -0.0069419165 -0.0286501259
-0.0451662336 -0.0136766366 0.1031074206
0.0610942325 0.0136766366 0.0936283281
0.0628417150 -0.0136766366 -0.0988567941
0.0090403375 -0.0136766366 0.4116472037
-0.1162492654 0.0136766366 -0.1117643034
-0.0457897813 0.0136766366 0.0390958169
0.0714562947 0.0136766366 0.1906137850
0.0828467092 0.0019662395 0.0359337605
0.1068331766 0.0136766366 -0.1065802251
0.0243810643 0.0136766366 0.2554190711
-0.1674905406 0.0136766366 -0.0889000582
-0.0123246085 0.0136766366 0.3934456082
-0.0918231554 -0.0108254267 -0.0545303996
-0.0239622814 -0.0136766366 0.4901812161
0.0149417101 0.0136766366 0.2222923816
-0.0096762912 -0.0136766366 -0.4230729816
0.0379230974 0.0136766366 0.2939330190
0.0106011576 0.0136766366 0.1125059696
-0.0828153917 -0.0136766366 0.0581375436
-0.0625996625 0.0136766366 -0.0904320178
0.0902126135 -0.0136766366 -0.0755853671
0.0922664015 0.0136766366 -0.0692486582
0.0598905700 0.0063377831 -0.1694940367
0.0201406695 0.0136766366 -0.0680108957
-0.0809121952 0.0133290319 -0.1694940367
-0.0494973130 -0.0136766366 0.4955683632
-0.0790753182 0.0032779622 0.5000000000
-0.0284065584 0.0136766366 -0.0842904918
-0.0390211799 0.0136766366 0.2457974727
0.0153206502 -0.0070859831 -0.1718169481
0.0561315941 -0.0136766366 0.4879962183
-0.0634972957 -0.0136766366 -0.0116137198
0.0498680737 0.0136766366 0.0868160325
0.0828467092 -0.0064802484 0.4266339239
-0.0644767252 0.0136766366 0.1644109051
-0.0502897570 -0.0136766366 -0.0454625599
0.0153206502 0.0074352036 -0.2168667683
0.0012862923 -0.0136766366 -0.2584225848
0.0127968046 -0.0136766366 -0.3186616315
-0.1658826422 0.0019220513 -0.0858022702
0.0412983054 -0.0136766366 0.1329874725
-0.0078980728 -0.0136766366 0.1471665558
-0.0230345133 -0.0136766366 0.0168802416
0.1202737550 0.0112018983 -0.0545303996
0.1155985259 0.0047922142 -0.1694940367
0.0828467092 0.0056018738 0.2833236692
0.0089732833 -0.0136766366 -0.3417010965
0.1376340956 0.0136766366 -0.0716816761
-0.0828361329 -0.0076672259 0.4640094251
-0.0828361329 0.0053525550 0.3637016455
0.1074121030 -0.0136766366 -0.1086616258
0.0567421114 -0.0136766366 0.1033259824
0.0828467092 0.0122511803 0.4460507593
0.0082429657 -0.0136766366 -0.0280933157
0.0185180439 -0.0136766366 0.0678528153
-0.0158619444 0.0094279602 -0.2164263805
0.0174356492 -0.0136766366 -0.1447865582
0.1345364360 -0.0136766366 -0.1495665896
0.1114231504 0.0072835201 -0.1694940367
0.0071002201 0.0136766366 0.3383041854
0.1248696402 -0.0136766366 -0.0632953923
-0.0460401421 0.0058047357 -0.4448989767
0.0240272550 -0.0136766366 -0.4769160312
0.0128264742 0.0136766366 -0.1522080590
-0.0778067919 -0.0136766366 -0.0316677427
0.0405745635 -0.0136766366 -0.0710208003
-0.0263463685 0.0136766366 -0.1531328781
0.0275592774 -0.0136766366 0.3005043618
0.0106090950 -0.0136766366 0.1579663949
-0.0828361329 0.0092664140 0.1521890026
0.0828467092 0.0133810662 0.2558721295
0.0698601284 -0.0136766366 0.1322977914
-0.0600359036 0.0136766366 0.3432850837
0.0261352362 0.0136766366 0.1610531454
0.0828467092 0.0110267866 0.1214332051
-0.0690366710 -0.0136766366 0.0416315614
0.0440130323 0.0136766366 0.3106369033
0.0023939917 0.0136766366 -0.1263443864
0.0192188870 0.0136766366 0.4288423119
0.0751930173 0.0136766366 0.1814494044
0.0084369958 -0.0136766366 -0.1517395095
0.0090216014 0.0136766366 -0.2598361771
0.0828467092 -0.0055960603 0.1010450910
-0.0588101679 -0.0136766366 0.1936019461
-0.0630202067 -0.0136766366 0.0804312899
-0.0033794563 0.0136766366 0.1348414365
0.0153206502 -0.0094186775 -0.2061492076
-0.0094617057 0.0136766366 -0.2003665321
0.0102747797 -0.0136766366 -0.3632113289
0.0828467092 -0.0124519823 0.0676299639
-0.1700308238 0.0136766366 -0.1110903762
0.0584761069 -0.0136766366 0.1596526004
-0.0397610401 -0.0136766366 -0.1153379862
-0.0038013936 -0.0136766366 -0.4061335542
-0.0411614089 -0.0136766366 0.3487659746
-0.0955304156 0.0136766366 -0.0816855268
-0.0130843118 -0.0136766366 -0.0765984127
-0.0346659290 0.0136766366 0.0997741422
0.0424284972 -0.0136766366 0.1620292191
-0.0233366158 -0.0136766366 0.0887934034
0.0691507384 -0.0136766366 0.2992186306
-0.0572137564 -0.0136766366 -0.0917176574
-0.0173325644 -0.0136766366 0.3426227566
0.1326511588 -0.0021498903 -0.1642310565
0.0237228380 0.0136766366 -0.0647241241
0.0448551944 0.0136766366 -0.1518143688
-0.0252285903 -0.0136766366 -0.4555652230
-0.0205163839 0.0136766366 0.4776515675
0.0457686511 0.0084947331 -0.4594229992
-0.0116817723 -0.0136766366 -0.4433544839
0.0313314536 0.0136766366 -0.1503384699
-0.0315535280 -0.0136766366 -0.0390210126
0.0828467092 -0.0034349568 0.1109073200
0.0138213003 0.0136766366 0.2021410300
-0.0398678939 -0.0136766366 -0.0027823284
0.1046878732 0.0136766366 -0.1599491033
-0.0747921348 -0.0136766366 0.2188672162
-0.0034989606 0.0136766366 0.1287152723
-0.0828361329 0.0127517157 0.1683903095
-0.0514762183 -0.0136766366 0.2086624583
-0.0117495512 0.0136766366 -0.3018809696
-0.0158619444 0.0090871422 -0.2640040899
0.0185542065 -0.0136249372 0.5000000000
-0.0038129489 -0.0136766366 -0.2270729773
-0.0804024428 -0.0136766366 0.2880918078
0.0735718730 -0.0136766366 0.0258203923
-0.1325263833 -0.0136766366 -0.1162814217
0.1579000551 0.0136766366 -0.0886561653
0.0828467092 -0.0077794338 -0.0132819911
-0.0861682351 -0.0136766366 -0.1499641147
0.0828467092 -0.0077064111 -0.0202053358
0.0095087258 0.0136766366 0.4504337843
0.0328484616 -0.0136766366 0.0293242671
-0.0996805017 0.0136766366 -0.0846406583
-0.0158619444 -0.0062716962 -0.2102098387
-0.0531971217 0.0136766366 0.0789852321
0.0030031930 -0.0136766366 0.0044240926
0.0373941971 -0.0136766366 0.1372675141
-0.0427834914 -0.0136766366 0.3161547029
-0.0158619444 0.0098599352 -0.1848359064
-0.0158619444 0.0110874198 -0.2499214940
0.0116680660 -0.0136766366 0.0901850739
-0.0214787337 -0.0136766366 -0.0497898407
-0.0099981283 0.0136766366 0.2243974373
0.0490434751 -0.0136766366 0.2713767870
0.0288147899 -0.0136766366 0.2435055917
-0.0083321665 -0.0136766366 -0.1803305655
-0.0592997347 0.0136766366 0.4103307593
-0.0353455907 0.0136766366 0.4348664649
0.0243443003 -0.0136766366 0.2237556139
0.0742892440 -0.0136766366 0.0438727788
-0.0734115678 -0.0136766366 -0.0094051769
0.0471285235 0.0088683561 -0.1694940367
-0.0060888460 0.0136766366 -0.3084780281
-0.0731615641 -0.0136766366 0.0269316990
-0.0398593111 -0.0136766366 0.4599718907
0.0566112889 -0.0136766366 0.1162996100
0.0804197971 -0.0136766366 -0.1197702277
0.0104994366 -0.0136766366 -0.0791717207
0.0033983308 -0.0136766366 -0.4672357740
-0.0206219845 0.0136766366 0.2270183738
-0.0350287577 -0.0136766366 0.3165884132
0.0828467092 -0.0061826135 0.0846838207
0.1065846595 -0.0032868726 -0.1694940367
-0.0205425488 0.0136766366 0.4774576023
0.0655030091 0.0121857209 0.5000000000
0.1303705957 -0.0136766366 -0.0618949512
-0.1723175414 0.0136766366 -0.0996098822
0.0237261103 -0.0136766366 0.3408649019
0.0666735675 -0.0136766366 0.1204699722
0.0676654829 0.0136766366 0.3388384977
0.0006955427 0.0136766366 0.0205075817
0.1166580557 -0.0052119549 -0.0545303996
0.1045737145 0.0136766366 -0.1376027661
-0.0598141246 -0.0136766366 0.1622472355
-0.0351088493 -0.0136766366 0.2760465350
0.1619700925 0.0021973348 -0.1378440046
-0.0158619444 -0.0063272073 -0.3885872698
-0.0068187371 0.0136766366 -0.2012975059
-0.0462236587 -0.0136766366 0.2325282957
-0.0678656830 0.0136766366 0.3970964701
0.0148555723 -0.0136766366 0.4123938364
-0.1179753027 0.0136766366 -0.1267167681
0.0199015801 0.0069411729 0.5000000000
0.0816943227 -0.0136766366 0.1821337587
-0.0205455027 0.0003755994 -0.4103578483
-0.0449818238 -0.0136766366 0.2169393582
-0.0412945837 -0.0136766366 0.0710944980
-0.0158619444 -0.0063983605 -0.2575535548
-0.0434175088 -0.0136766366 0.2940586954
-0.0759364409 -0.0136766366 0.1525838972
-0.0155921446 0.0136766366 0.4208553230
0.0571976660 0.0136766366 -0.1527878100
-0.0495171890 -0.0136766366 -0.0570797634
0.0730519864 0.0136766366 -0.1231872026
-0.0099115646 -0.0136766366 -0.3594827824
0.0470270417 -0.0136766366 0.1663305233
0.0003646497 0.0136766366 -0.4707314096
-0.0370288881 -0.0136766366 -0.0845579570
0.0012703519 0.0010721003 -0.4989314635
-0.1375415200 -0.0136766366 -0.1531827161
0.0265585609 -0.0136766366 0.1996302342
0.1031290555 0.0018878722 -0.0545303996
-0.0299506547 -0.0136766366 0.0117634493
-0.0477446854 -0.0136766366 -0.1533964134
-0.0158619444 -0.0097522873 -0.3334127747
0.0096395603 0.0136766366 -0.1036874035
-0.0413757339 0.0136766366 -0.0838311239
-0.0287671592 0.0136766366 -0.0974973744
-0.0443980165 -0.0136766366 -0.1100456567
0.0272906137 -0.0136766366 0.4836905406
-0.0367782510 -0.0136766366 0.4587917845
0.0086245285 -0.0136766366 0.3980070093
-0.0474256418 -0.0136766366 0.4906136990
-0.1106031536 -0.0007357514 -0.1694940367
-0.1566925757 -0.0136766366 -0.1207950261
-0.0683455167 0.0136766366 0.1337449603
-0.0896291510 -0.0136766366 -0.0789340463
0.0038109620 0.0136766366 -0.3916910246
0.0144182931 0.0136766366 -0.0098449462
0.1007201351 0.0073487580 -0.1694940367
-0.0450196131 0.0136766366 0.2357145383
-0.1171910824 -0.0136766366 -0.1511682834
-0.0359523800 -0.0136766366 0.0334860351
0.0768798809 0.0136766366 0.2079089303
0.1200551113 0.0051028848 -0.1694940367
-0.0143549238 0.0136766366 -0.3979571301
-0.0828361329 0.0032550725 0.4995195708
0.1824986668 -0.0136766366 -0.1043365644
0.0011053072 0.0136766366 0.2296053120
-0.0610542537 -0.0136766366 0.4779262799
0.1508151029 0.0136766366 -0.1231644613
-0.0621903340 0.0136766366 -0.0154632630
0.0385425447 0.0136766366 0.2901570930
-0.0387725043 0.0136766366 -0.1670920474
0.0317827280 -0.0136766366 0.3872432909
0.0828467092 0.0012941244 0.3027091448
-0.0271933810 0.0136766366 0.0325237423
0.0812963271 -0.0136766366 0.4353702312
0.1155285917 -0.0136766366 -0.1017197869
0.1198479958 -0.0136766366 -0.1635732790
-0.0622202723 0.0136766366 0.2907815988
-0.0534550904 0.0136766366 0.3860170286
0.0939421105 -0.0136766366 -0.0645947584
-0.0828361329 0.0128447690 0.2135573791
-0.0828361329 0.0049368980 0.2177866650
0.0828467092 0.0040618841 0.0810676263
0.0437618621 0.0136766366 -0.0265021648
0.0153206502 -0.0120814756 -0.1784629388
-0.0060386300 0.0136766366 -0.0214939341
0.0690351821 -0.0136766366 0.3195686570
-0.0473589578 -0.0136766366 0.4798912004
-0.0423296818 -0.0136766366 -0.0505726461
0.0813932198 -0.0136766366 -0.1513393487
-0.0828361329 0.0105377630 0.1649101847
0.0045646345 0.0136766366 0.3973647913
-0.0707157498 0.0136766366 -0.1369939861
0.0067704739 -0.0136766366 -0.2911853283
-0.0513018139 0.0136766366 0.1014651111
-0.0620144182 -0.0136766366 -0.0050296466
-0.0418967547 -0.0136766366 0.0240324810
0.0407707998 0.0136766366 0.4838526199
-0.0413709466 -0.0136766366 0.1026032167
-0.0828361329 -0.0108177870 0.0686748851
0.0828467092 -0.0125602873 0.0269685896
-0.0669678287 -0.0136766366 0.3111472722
0.0058577696 -0.0136766366 -0.3150463507
0.0708011040 0.0136766366 0.2805538289
0.0884532221 0.0136766366 -0.1624838771
-0.0828361329 0.0125940563 0.3113472664
-0.0854626448 -0.0070353800 -0.0545303996
0.0145590821 0.0136766366 0.3407103540
0.0080756556 -0.0136766366 -0.2284300150
0.0485999925 0.0136766366 -0.0683867851
0.0134700151 0.0136766366 0.0169601787
0.0286075069 -0.0136766366 0.4553985120
-0.1380847227 -0.0136766366 -0.0756513465
0.0134428405 0.0136766366 -0.1247511975
0.0746343981 -0.0136766366 0.2925777479
-0.0063660760 -0.0136766366 0.0370399345
0.1550149832 -0.0004815803 -0.0770996785
0.0615093430 0.0136766366 0.1411102752
-0.1209674140 0.0136766366 -0.0918247573
0.0725217646 -0.0136766366 -0.0710718056
0.0534335528 -0.0136766366 0.4657150167
0.0065906797 -0.0136766366 -0.3433550889
0.0486485986 0.0136766366 -0.0723810165
0.0794477756 -0.0136766366 0.4183633845
-0.0665461254 0.0136766366 -0.1092464304
-0.0131686440 0.0136766366 0.2569752436
-0.0454028403 -0.0136766366 0.0755464255
0.0153206502 -0.0045380102 -0.2385296752
0.0533296248 0.0136766366 0.0898557501
0.0771806906 0.0136766366 0.0581195078
-0.1502592930 -0.0136766366 -0.1448791535
0.0401889113 0.0038009759 0.5000000000
-0.0449939697 0.0136766366 0.4086065420
0.1660894737 0.0052922331 -0.1341365560
0.0763052560 -0.0136766366 0.2004777916
-0.0532451586 0.0136766366 0.0419729518
-0.0406064559 -0.0136766366 -0.0708421938
0.0163734984 -0.0136766366 0.0222224020
-0.0158619444 -0.0091313878 -0.1772273128
-0.0316117879 0.0103166663 0.5000000000
-0.0587238137 0.0136766366 0.3346367875
0.0452556748 0.0136766366 0.0489747555
0.0100697588 0.0136766366 0.2361128035
0.0274871124 0.0136766366 -0.1373843961
0.0377090467 0.0136766366 0.1757784877
0.1700542765 0.0108148356 -0.0891311173
0.0211090052 0.0136766366 -0.4579926294
0.0038688110 0.0136766366 0.1560398594
-0.0627811889 -0.0136766366 -0.0803803965
-0.0613733414 0.0136766366 0.2671135911
-0.1421125560 0.0022473517 -0.1557062725
-0.0361307021 0.0032049714 -0.4314732811
0.0470917853 0.0136766366 0.4264854240
-0.0539238931 -0.0136766366 -0.1154890994
0.0441253874 0.0136766366 0.3664034005
-0.0301085123 0.0136766366 0.2774030694
0.0362472607 0.0136766366 -0.1425374517
-0.0060786507 0.0136766366 0.4228141014
-0.1535992416 -0.0136766366 -0.1058715468
-0.0244722195 -0.0136766366 -0.1087559543
0.0006523233 -0.0136766366 0.2409684956
-0.0910219060 0.0136766366 -0.0916372737
-0.0114994842 0.0136766366 0.4647246774
-0.0528064022 -0.0136766366 0.1587120230
0.0965689263 0.0136766366 -0.1444057569
0.0540517676 -0.0136766366 0.4767581712
-0.0684328532 -0.0136766366 0.2810243683
0.0588720524 -0.0136766366 0.0831107710
-0.0828361329 -0.0120084406 0.3634591102
0.0153206502 -0.0008309536 -0.3246140301
-0.0804520793 -0.0136766366 -0.0938681347
0.0036290959 -0.0136766366 -0.3120972264
0.0828467092 0.0062666697 0.0516064549
-0.0306410499 -0.0087717081 0.5000000000
0.0131649098 0.0136766366 -0.4536904409
-0.0234998413 -0.0136766366 -0.0291108868
-0.0071109411 -0.0136766366 0.1733216952
-0.0126307733 0.0136766366 -0.1155956973
0.0761684892 -0.0136766366 -0.0815049433
-0.0828361329 -0.0054525334 0.0123141627
0.0341089216 0.0136766366 0.3677468325
0.0479890108 -0.0075888684 0.5000000000
-0.0041269266 0.0136766366 -0.0152718949
-0.0474096289 0.0052840644 0.5000000000
0.0424469610 -0.0136766366 -0.0009546467
0.0754079721 -0.0136766366 0.4628511011
0.0383603501 -0.0136766366 0.4177500903
0.0142621170 0.0136766366 0.4118388298
-0.0231570115 -0.0044962169 -0.4794896875
-0.0305550305 0.0136766366 0.1391829566
-0.0770905366 0.0136766366 0.0062975557
0.0475345478 -0.0136766366 -0.0120426218
-0.0962062114 0.0007533837 -0.0545303996
0.0583089686 -0.0136766366 -0.0216867751
-0.0279833636 -0.0136766366 0.3262013066
0.0576455192 -0.0136766366 0.4067029599
-0.0737063407 0.0136766366 0.4370297041
-0.0206799161 0.0136766366 0.2279940503
-0.0581081031 -0.0136766366 0.3495368640
-0.0663188856 0.0136766366 0.4023414972
-0.0395503459 0.0125264604 -0.1694940367
-0.0071525353 -0.0136766366 -0.0126463780
0.0484651382 0.0136766366 0.0201440339
0.0180064578 -0.0136766366 0.4668619030
0.0588230097 0.0136766366 -0.0370744951
-0.0583444570 0.0136766366 0.4196840785
0.0828467092 -0.0109579075 0.1775457613
0.0638730047 0.0136766366 0.0177857214
0.1758419173 -0.0114693047 -0.1253593513
-0.1316622076 -0.0036968422 -0.0584259053
-0.0350234025 0.0136766366 -0.4392188258
-0.0635304477 -0.0136766366 -0.1263554561
-0.0066031255 -0.0136766366 0.0557025893
-0.0066020916 0.0136766366 0.0024227615
-0.0036613499 -0.0136766366 -0.1967092450
0.0212556319 0.0136766366 0.1295814955
0.0828467092 0.0016581421 0.4529720693
0.1023686021 0.0136766366 -0.1158915858
0.0739275446 -0.0136766366 0.4154327969
-0.0229216188 -0.0136766366 0.4138274130
0.0828467092 -0.0036390489 0.1879090455
0.0201170957 0.0136766366 0.2417705428
0.0567005282 -0.0136766366 0.3035065891
0.0273097757 -0.0136766366 0.1765766706
0.0828467092 0.0114917998 0.2242246960
0.1145016624 -0.0136766366 -0.0976293639
-0.0259974224 0.0136766366 -0.0738536405
-0.1126340093 -0.0136766366 -0.1631374487
-0.0183138458 0.0064500837 0.5000000000
-0.0253178909 -0.0051996320 -0.4168236647
0.0143916734 -0.0136766366 -0.1488374632
0.0056951909 0.0132056033 -0.4950028055
-0.0140371071 -0.0136766366 0.0672765037
-0.0399477560 -0.0136766366 -0.0136040090
0.0232972304 0.0136766366 0.4777373567
0.0611423503 -0.0136766366 -0.0983028033
0.0203373829 -0.0136766366 0.0461462748
0.0017587211 0.0136766366 -0.3582525416
0.1302302542 0.0002745744 -0.1664098716
0.0607490309 -0.0136766366 0.3992501996
0.0273583000 -0.0136766366 -0.0133742541
0.0828467092 0.0007508014 0.3840929867
-0.0437615460 0.0136766366 0.1320817595
-0.0828361329 -0.0099389068 0.4423304581
-0.0702801997 -0.0136766366 0.1122009616
0.0828467092 0.0002706227 0.4471528213
0.0468246014 0.0136766366 -0.0309464978
0.0332591702 -0.0051812151 -0.4275684882
-0.1456796409 -0.0117539221 -0.0696398613
-0.0425224256 -0.0136766366 0.1392223161
-0.0828361329 -0.0050330665 0.2305669678
-0.0613557460 0.0136766366 0.4974030953
0.1643183674 0.0136766366 -0.0918894654
0.0049356838 0.0136766366 -0.0222919668
-0.0389218305 0.0136766366 0.1727917714
-0.0554841983 0.0136766366 0.0448370066
-0.0329292830 -0.0136766366 0.3998505898
0.1499594900 -0.0136766366 -0.1161921370
-0.0352302941 -0.0136766366 -0.1622004847
-0.0828361329 0.0086910023 0.2126625637
0.0278937932 0.0136766366 -0.4247934180
0.0805219265 -0.0136766366 0.4260956018
-0.0620157897 -0.0136766366 0.0841847411
0.1471669322 -0.0136766366 -0.1224308505
-0.0386281626 -0.0136766366 0.3511105040
0.0392049591 -0.0136766366 -0.1537838703
0.0706204230 -0.0136766366 0.1762573134
0.1100595076 0.0136766366 -0.0591871576
-0.1038341790 -0.0136766366 -0.0963670523
-0.1340860511 0.0136766366 -0.1565367820
0.0444390105 -0.0136766366 0.4196266236
-0.0827241142 -0.0136766366 0.3474716772
0.0046476435 -0.0136766366 0.4777437002
0.0522413380 -0.0136766366 0.0054271833
-0.0068977952 0.0136766366 0.4463854916
0.0828467092 -0.0033583730 0.4285847840
0.0783060941 0.0136766366 0.4775258797
0.0493427530 0.0136766366 0.4673229785
-0.0191828636 -0.0136766366 -0.4168384904
0.0069008580 -0.0136766366 0.2374530570
0.0339463472 -0.0136766366 0.2395067027
-0.0486129122 -0.0136766366 -0.1348078135
0.0061348461 -0.0136766366 0.1690668080
-0.0671095719 -0.0136766366 0.2942473202
-0.0632012180 0.0136766366 0.2505760043
0.0153206502 0.0114821227 -0.3947406419
0.0110192038 0.0136766366 0.4052692197
-0.0828361329 -0.0065779312 0.0832035604
-0.0828361329 0.0048111157 0.1326873490
0.0250573281 0.0136766366 0.0714591659
0.0542530474 0.0136766366 0.3346066259
-0.0753433676 -0.0136766366 0.4995006057
-0.0174529061 -0.0136766366 -0.1049805990
0.0588685967 0.0136766366 0.3660307027
-0.0795078266 -0.0136766366 0.4958697040
-0.0828361329 -0.0091808543 0.0181540317
-0.1205447822 -0.0136766366 -0.0620147219
-0.0158619444 -0.0120071903 -0.4016550629
-0.0158619444 -0.0107764067 -0.2952481510
-0.0512233320 0.0136766366 0.2500332594
0.0288679529 0.0136766366 0.1870838924
0.0802547221 0.0136766366 0.4465369887
0.0210964254 0.0136766366 -0.4759616120
-0.0011286457 -0.0136766366 -0.0910449124
0.0193596223 0.0136766366 0.3803816092
-0.0172492898 0.0136766366 0.4093966393
0.0393998391 -0.0136766366 0.3847160011
0.1520935415 -0.0136766366 -0.1310459910
-0.0828361329 -0.0067427267 0.1331002837
-0.0653592894 0.0136766366 0.3402307505
0.0115752538 -0.0136766366 -0.1441354856
0.1223664054 -0.0136766366 -0.1160167417
0.1662622940 -0.0136766366 -0.1208765531
0.0963422766 0.0136766366 -0.0959929150
-0.0109926551 -0.0136766366 0.0689671552
0.0239472338 -0.0136766366 0.4297281690
-0.0099965281 0.0136766366 -0.0791767072
-0.0332625923 0.0032329391 -0.4705172967
0.0697599166 0.0136766366 0.0469314948
-0.0598651458 0.0136766366 0.3783982742
-0.0610280324 -0.0136766366 0.1967158131
0.0828467092 -0.0053575314 0.3535439431
0.0153206502 -0.0027227498 -0.1849691575
0.0496349456 0.0136766366 0.0052380857
0.0373292263 0.0136766366 0.3078813530
-0.0828361329 0.0026304706 0.0078515557
0.0591436057 0.0136766366 0.4356879900
0.0828467092 -0.0119619252 0.4234901533
0.0153206502 0.0031307588 -0.3776536729
0.0802524482 0.0136766366 0.4700505038
-0.0129143931 0.0136766366 0.2208162414
0.0045153188 0.0136766366 -0.2204000459
-0.0124297986 -0.0136766366 0.4441232729
0.1025809039 0.0136766366 -0.0866915113
0.0831237982 0.0136766366 -0.0734441176
-0.1186779737 -0.0097523988 -0.0545303996
0.0461882084 0.0136766366 0.3513916295
0.1449235080 0.0095939976 -0.0690264945
0.0716339678 -0.0136766366 0.1989788307
0.1923211269 -0.0136766366 -0.1091030915
0.0667569646 0.0136766366 -0.1253304512
-0.0826131585 -0.0136766366 0.0679825982
-0.0828361329 0.0046735333 0.1228793014
0.0357388869 0.0136766366 0.4155552258
-0.0460429039 0.0090140976 -0.4449027197
-0.0170768304 -0.0136766366 0.1796936601
-0.0350586234 0.0136766366 0.1230290744
-0.0091119408 -0.0136766366 -0.3415647748
-0.0002496698 0.0136766366 -0.0956283440
0.0251979991 0.0136766366 0.2685635905
0.0156457162 0.0136766366 -0.4719801314
0.0536750603 -0.0136766366 0.4574831919
0.0333365348 0.0136766366 0.0076148176
-0.0204168863 0.0136766366 -0.0488318669
0.0828467092 0.0001097871 0.4448921161
-0.1611385190 -0.0032079334 -0.0820069704
-0.0545136286 0.0136766366 -0.0927249795
-0.0121698850 0.0136766366 0.4797845720
0.0943659079 -0.0136766366 -0.0568154078
0.0828467092 0.0021301928 0.4291659095
0.0153206502 0.0009871686 -0.2559671101
0.0226838455 0.0136766366 -0.0270216849
0.0038214087 0.0136766366 0.4882503123
0.0004863529 -0.0136766366 -0.4294932982
-0.0380306457 0.0136766366 -0.4651294284
0.0754887608 0.0136766366 0.3331632406
0.0722185036 0.0136766366 -0.1371189024
0.0379260901 0.0136766366 0.1376646086
-0.0496431017 0.0136766366 0.1383714998
-0.0122043382 -0.0136766366 0.2225973765
-0.0270499690 0.0136766366 0.0716327961
0.0200535172 0.0136766366 -0.4811489450
-0.0909104165 -0.0012137804 -0.0545303996
-0.0826000452 0.0136766366 -0.0627438500
0.0171561990 0.0136766366 0.0849933225
0.0120121460 0.0136766366 0.2359563095
-0.0374874928 -0.0136766366 -0.0414616732
-0.0143040145 -0.0049557197 0.5000000000
0.1081394609 -0.0136766366 -0.1421495725
0.0120522954 -0.0136766366 0.3694907229
0.0339979338 -0.0136766366 0.4374888090
-0.0793934076 0.0136766366 -0.0363368984
-0.0792853079 -0.0136766366 0.2071663135
-0.0171034254 -0.0136766366 0.1784106762
0.1259053900 0.0136766366 -0.1474201900
-0.0499130332 -0.0136766366 -0.0094351395
-0.0345506828 -0.0085880831 -0.1694940367
0.1479772671 0.0136766366 -0.1197403293
-0.1351107545 -0.0136766366 -0.1002354586
-0.0265265328 -0.0136766366 -0.0291176340
-0.0724924426 0.0136766366 -0.0880676106
-0.1194867173 -0.0136766366 -0.0785699703
-0.0828361329 0.0054827333 0.1219448046
-0.0914812872 0.0136766366 -0.0633393757
-0.0839255634 -0.0136766366 -0.0571467728
0.0240561931 0.0136766366 0.0656677858
0.0079969899 0.0136766366 0.4804636861
0.0341904721 -0.0136766366 0.1594304259
0.1047750919 -0.0136766366 -0.1385772168
-0.0268672868 -0.0136766366 -0.4238033756
-0.0044053175 0.0136766366 0.0414761575
-0.0692811825 0.0136766366 -0.1259498798
-0.1828003215 -0.0014821627 -0.0993364190
0.0318251775 0.0136766366 -0.0299755678
0.0153206502 0.0109106159 -0.3115615654
0.0433410453 0.0136766366 0.0844491322
0.0449464393 0.0136766366 0.2440784877
-0.1527553814 -0.0029694035 -0.1461277237
-0.1914579926 -0.0113329681 -0.1112953557
0.0828467092 -0.0101823233 0.4834962409
-0.0309999783 -0.0136766366 -0.1412901252
0.0828467092 0.0008159647 0.1709469316
-0.0272706237 0.0136766366 -0.0543881248
0.0770167547 -0.0136766366 0.1427772693
-0.1043553428 -0.0136766366 -0.0885618355
0.0645616196 -0.0136766366 0.2621128422
-0.0822018513 0.0136766366 0.1803237852
-0.0151017899 0.0136766366 0.2219424412
-0.0672932113 -0.0136766366 0.2920666765
-0.0298298836 -0.0110541981 -0.4735650786
0.0490025025 -0.0136766366 -0.0151735597
-0.0828361329 -0.0000964981 0.4676224133
0.0472303100 -0.0136766366 0.0673486349
0.0190632787 0.0136766366 0.4023917782
0.0828467092 0.0005251235 0.2346347726
-0.0631835024 0.0136766366 0.0718539776
-0.0349003311 -0.0136766366 -0.4542062424
0.0220352423 0.0136766366 0.0478364609
-0.0208629521 0.0084214993 -0.4815264987
-0.0258869519 -0.0136766366 0.4572909216
-0.0828361329 0.0047338168 0.1903776999
0.0828467092 -0.0059896298 0.0165444712
0.0603312734 0.0136766366 0.0579336374
-0.0106773263 -0.0136766366 -0.3380346221
-0.0828361329 -0.0102804588 0.2501658661
0.0137561477 -0.0136766366 -0.2052898318
-0.0201978216 0.0136766366 0.4997081305
-0.0158619444 -0.0110613558 -0.3992809350
-0.0158619444 0.0032966433 -0.2722969040
-0.0056333325 -0.0136766366 0.0225632887
0.1064455613 0.0136766366 -0.0964346849
0.0704903118 -0.0136766366 0.2153277657
-0.0204830702 0.0136766366 0.2719856103
-0.0081051251 0.0136766366 0.4659717638
-0.0523105619 -0.0136766366 -0.1315940271
-0.0820137500 -0.0136766366 0.4230219256
-0.0907610567 0.0136766366 -0.1683389624
0.0998093820 -0.0136766366 -0.0939318658
